# .PCD v0.7 - Point Cloud Data file format
VERSION 0.7
FIELDS x y z intensity
SIZE 4 4 4 4
TYPE F F F F
COUNT 1 1 1 1
WIDTH 1230
HEIGHT 1
VIEWPOINT 0 0 0 1 0 0 0
POINTS 1230
DATA ascii
8.0010777 0.8765794 -0.93133795 7.7195325
-4.9876394 1.4083663 -0.75508916 5.4218636
5.3192019 1.6898723 -1.1518743 2.1984043
5.6050167 1.7610389 -1.1471136 2.9999993
7.6232386 1.5742048 -0.9701103 7.1778002
7.8880682 1.430855 -0.86990297 8.1830244
-5.0444422 2.111202 -1.0205374 3.2680674
-4.5278368 2.2859697 -0.77594423 5.0764885
-3.8007703 2.3494735 -1.0249326 0.83137953
-3.5761962 2.3390689 -0.97228754 1
4.7981253 2.3826857 -1.0200508 3.4421859
5.0447116 2.1969724 -1.0576781 3.4155698
5.669342 2.0849631 -0.99752897 5
7.1721268 2.2454295 -1.0871255 6
7.4577308 2.1420047 -0.9015137 7.6826591
-4.3467989 2.4472854 -1.0563951 1.505141
-3.8474855 2.6087456 -0.85455596 3.3731909
-3.323096 2.7793074 -0.80485201 3.2649693
-2.7911336 2.9091294 -0.72479451 3.6785717
-2.0801659 2.5904994 -0.68705535 1.871521
-1.3726528 2.9810882 -0.61311448 3
-0.95640469 2.9643116 -0.63525534 2.1875
3.9778066 2.9751568 -1.0700625 1.8612952
4.5710211 2.7616119 -0.97874343 3.9264469
4.9217334 2.4776523 -1.0002483 3.9971282
5.948328 2.8042521 -0.93379819 6
6.1093588 2.6781063 -0.94769585 6
7.0479722 2.7915206 -0.96116859 7.0591922
7.3072042 2.6995692 -0.87777799 7.8327684
-3.0300882 3.013628 -0.80698991 3.0019774
-2.6219678 3.1558528 -0.80061626 2.6598549
-2.121237 3.3538404 -0.79465735 2.459693
-1.6639147 3.5687466 -0.80275393 2.2681715
-0.90181041 3.2615368 -0.72509706 1.6046205
-0.44308788 3.2559385 -0.69570494 2
0.027930222 3.3864365 -0.66244912 2.9063468
3.8204725 3.2044711 -1.1334199 1.0620425
4.4287167 3.2380538 -0.95749271 4.3625932
5.119256 3.0892496 -0.65314144 8
5.6059833 3.3633838 -0.68896317 8.2639542
6.1215801 3.3089466 -0.82761168 7.4245181
6.9549541 3.3701937 -0.85458815 7.9839144
7.2169695 3.0595536 -0.87391293 8
-1.8085295 3.6124868 -0.81941974 2
-1.5208755 3.6708045 -0.83006561 1.9561292
-0.72749364 3.9047203 -0.80073309 2.4852695
-0.30730832 4.0579014 -0.81803751 2.5884776
0.077309318 3.8906064 -0.74754608 2.9851224
1.7025585 4.1971717 -0.89703918 3
2.9784498 3.998745 -1.1593864 0.58981502
3.0421872 4.0450006 -1.1541774 1.042311
3.994091 3.953742 -1.0491047 3.5328026
4.4419308 3.7476852 -0.70766783 7.260426
5.2591586 4.0829897 -0.88674307 6.5526304
5.6311321 3.9729471 -1.0276555 5.7115502
6.5655422 3.9151025 -0.74642736 8.7499771
6.7389951 3.9434099 -0.88435364 7.861167
-0.74561501 4.3231845 -0.76720607 4
-0.1879392 4.2863874 -0.85173637 2.704958
0.32302237 4.4448037 -0.84996557 3.2768507
0.74196452 4.6759958 -0.96622694 2.3139615
1.6122876 4.4951038 -0.99934757 2.0878954
1.9542296 4.4837666 -0.9300313 3.2814546
2.6930122 4.2367477 -1.1827834 0.0017089844
3.0285206 4.2414131 -1.1382469 2
3.8642151 4.5288038 -0.93512964 5.307128
4.5002041 4.7231803 -0.82560974 6.972146
5.2342157 4.5651693 -0.9517386 6.3941841
5.6510797 4.3927302 -0.91665351 7
6.3635216 4.4471354 -1.0126376 7
6.683465 4.4526844 -0.90664124 8
1.0175977 5.0518398 -0.93763471 3.8343713
1.5471723 5.1822171 -1.0098577 3.5817349
1.8564142 5.2476864 -0.9007585 4.9984703
3.5979137 4.9320059 -1.1944546 3
3.8162587 5.0948429 -0.88578844 6.2666869
4.3875046 4.8947654 -0.67520809 8.4728184
5.1603117 5.021203 -0.908571 7.0695906
5.4717851 5.0761356 -0.89073741 7.5352936
6.178688 5.1706948 -0.90786046 8
1.7949839 5.4175496 -0.60490745 8
2.0792699 5.5151529 -0.74035239 7.0722151
2.6980143 5.8908114 -0.75363314 7.5651274
3.1671362 5.9352379 -0.96814132 5.969317
4.0872869 5.8374763 -0.97118843 6.509778
4.2140231 5.5862789 -0.76092708 8
5.8560796 5.809391 -0.63458884 9.9986973
6.0668483 5.5172958 -0.62573385 10
2.898931 6.0716352 -0.72714376 7.9490108
3.3794825 6.1655331 -0.89896584 6.9279928
3.87995 6.2815914 -0.94622815 6.9517412
4.4502802 6.336154 -0.8569513 7.9868217
4.9746518 6.553216 -0.68216902 9.6692638
5.6166549 6.3603592 -0.65912628 10
5.2696924 6.6884518 -0.66179842 10
5.4668379 6.698863 -0.67574835 10
24.540981 -21.120399 -0.27710283 14
24.614281 -21.389858 -0.59544635 13
24.904877 -19.256935 -0.58861583 13.000006
24.858437 -19.033836 -0.27285421 14
17.427168 -15.714438 -0.48932314 13
16.553032 -15.156778 -0.48183703 13
17.19141 -15.49901 -0.48329991 13
19.708218 -15.270832 -0.16753301 14
16.756168 -14.837534 -0.56779456 12
16.802355 -14.83812 -0.56718242 12
21.781853 -14.411787 -0.18614028 14
15.539262 -13.924445 -0.43280762 13
15.871426 -13.813573 -0.44063169 13
21.820824 -14.312984 -0.20106867 14
14.260294 -13.217911 -0.3910163 13
15.856997 -13.716566 -0.47811016 12.5
14.365438 -13.020788 -0.41474915 13
14.567478 -12.730467 -0.41512641 13
24.301102 -12.631359 -0.24206105 14
14.932222 -12.441872 -0.42143992 13
15.40905 -12.369922 -0.43495521 13
15.762688 -12.115884 -0.50707924 12
24.600281 -12.118522 -0.31961539 13
20.821928 -11.486106 -0.092168286 14.527779
17.889282 -10.837861 -0.4496817 13
20.790155 -11.394386 -0.17361008 14
17.906317 -10.737604 -0.46136415 13
18.079676 -10.397072 -0.49973306 12
16.710583 -7.4510236 -0.40327114 13
16.877813 -7.2617893 -0.41765219 12
-1.2057214 -6.650178 -0.018765699 13.5
-1.0747613 -6.6526413 -0.016340297 13.583323
16.776796 -7.1409588 -0.38464355 12
16.861692 -7.1460795 -0.44857347 12
-1.8408606 -6.1214027 -0.24821556 11.386839
-1.4053543 -6.2864056 -0.2432532 11.453806
-0.77560091 -6.4550695 -0.24279122 11.472313
-0.27393472 -6.2590137 -0.35815704 10.333642
0.2540246 -6.1077938 -0.35817626 10.246013
-2.000221 -5.682683 -0.26224005 11.038519
-1.3008459 -5.9684906 -0.48525792 9.0000639
0.43219441 -5.8122153 -0.34208471 10.31241
1.0076725 -5.6642618 -0.21754073 11.537277
1.5082183 -5.4683886 -0.23647441 11.295881
1.918717 -5.4060259 -0.17204979 11.999996
-2.403934 -4.8432527 -0.12859756 12.000082
-2.2629371 -4.9624138 -0.15524179 11.811905
1.1656518 -5.3521881 -0.007581573 13.75
1.6647263 -5.1823859 -0.2631976 10.90451
2.1490843 -5.1017556 -0.26063672 11.025747
2.5453637 -4.9144263 -0.22573149 11.409317
-2.5040257 -4.4851723 -0.28324342 10.279873
-2.2966824 -4.716363 -0.27344626 10.425493
1.7978232 -4.7517319 -0.4009369 9
1.842252 -4.7647943 -0.4145698 9
2.6201804 -4.6598225 -0.23596942 11.215225
3.3184099 -4.3695469 -0.22056282 11.515065
3.6531551 -4.3679585 -0.18691951 11.5
4.4437099 -4.2078228 -0.42335165 9.8818436
-3.0042117 -3.6307554 -0.2241624 11.000011
-2.8337641 -3.7858417 -0.19581234 11.0557
3.5279045 -4.0989056 -0.24973878 11.167185
3.8949928 -3.9196672 -0.27678013 10.980158
4.3727608 -4.0856647 -0.27022928 11.313505
-3.0240719 -3.2742319 -0.23395652 10.228285
-2.8743062 -3.3906684 -0.26750845 9.7852478
-0.35393327 -3.124208 -0.535568 3.7206855
0.30932599 -3.0110383 -0.34607464 6.999999
1.2006575 -3.0905273 -0.38405764 7
7.7964401 -3.0209157 -0.036500506 14
7.9632182 -3.0430465 -0.22096786 12.729153
-3.201329 -2.6984377 -0.2789253 9.2547789
-2.8843184 -2.7814002 -0.46351755 6.703125
-0.62227112 -2.8981025 -0.59974325 1.6666667
-0.27567655 -2.6754472 -0.52080363 2.2499349
0.31618038 -2.665534 -0.36916184 5.4067559
0.98915696 -2.6254182 -0.35756552 6.1137753
1.5173957 -2.5499055 -0.46073833 4.576942
7.7303767 -2.7179041 -0.25724244 12.468956
8.0534096 -2.693198 -0.14635867 13.284129
8.6855192 -2.4380438 -0.26655722 12.619041
9.0273333 -2.4092221 -0.36324877 12
-3.6920767 -1.8876026 -0.19507858 10.712708
-3.3467109 -2.124105 -0.24351422 9.7215996
-0.0024672817 -2.2479732 -0.42337143 2.5000648
0.22263953 -2.1993008 -0.40254331 2.9293432
0.90440094 -2.1129789 -0.41120693 3.0046051
1.4798079 -2.2303216 -0.5226078 2.21401
1.8643709 -2.2268155 -0.58793813 1
8.372076 -2.3554862 -0.15038773 12.956381
8.5951643 -2.183537 -0.19733261 12.960548
9.0854921 -2.1815691 -0.37212616 12
-3.7224946 -1.4551423 -0.19780345 10.50885
-3.4623857 -1.5008721 -0.36775452 7.7844
-2.8733716 -1.381263 -0.52010071 4.0421858
0.87793803 -1.7812295 -0.34963271 2.9992676
8.7261677 -1.476495 -0.14335746 13.454446
9.196517 -1.4626136 -0.37427986 12
-4.2198877 -0.82452792 -0.32402894 9.0713196
-3.967366 -0.91932881 -0.23001905 10.190738
-3.1111889 -1.1806029 -0.53189629 4.2685642
-2.4525051 -1.1734633 -0.48394674 3.125
-2.1848705 -1.0518409 -0.2773636 6.6453876
-1.5462211 -0.6000576 -0.36454067 2
8.3973408 -0.62410253 -0.16646791 13
8.7372999 -0.84980381 -0.1841471 13.155323
9.0676012 -1.0833943 -0.36435938 12
-4.2480955 -0.15018255 -0.30165958 9.3853445
-3.9978776 -0.31083226 -0.27484834 9.582489
-1.8411994 -0.075374298 -0.22656617 6
-1.539917 -0.3198159 -0.27366245 2.8794293
8.3833485 -0.25446177 -0.1249636 13.454895
8.5449553 -0.41200599 -0.21820313 12.79898
-4.814744 0.56927645 -0.21938157 11.051226
-4.3923678 0.35500449 -0.4285779 7.8975005
-4.0597591 0.0064989072 -0.47376302 7.03125
-1.8501807 0.10669777 -0.2293867 6
-1.5444568 0.32319459 -0.27052987 3.1360226
8.2508736 0.45282796 -0.27640814 12.456013
8.5012054 0.24704567 -0.32945174 12
-4.9534349 0.87918633 -0.24718043 10.7999
-4.7475109 0.61308086 -0.13086273 12
-1.5266725 0.61436367 -0.33808717 1.4821453
7.7931433 1.168166 -0.048143528 14
8.0406427 0.93504846 -0.34331864 11.886908
8.4322796 0.66287392 -0.26764637 11
-5.1250935 1.4962169 -0.25538185 10.853514
7.7201767 1.6123657 -0.37497246 11.576873
7.8689327 1.3203963 -0.19660139 12.933781
-5.4545579 2.0140405 -0.26282474 11.125001
-4.9616351 2.2324958 -0.2023252 11.531443
-4.6591978 2.3497891 -0.30456775 10.285314
7.5094194 2.2652459 -0.18341622 13.373104
-4.8088284 2.4017956 -0.14965767 12
-4.4571104 2.5092797 -0.29977709 10.33675
-3.8391399 2.6956959 -0.20586973 11.204046
-3.3431375 2.8280902 -0.28712225 9.9186831
-2.7745352 2.8900974 -0.37913746 8.3291759
-2.0393627 2.8415823 -0.31829849 8.4839754
-1.523278 2.8541451 -0.43938568 5.8669739
-1.0520754 2.9819007 -0.4909265 4.8345451
7.1653714 2.8738155 -0.35747504 11.676043
7.3453784 2.6916819 -0.1774929 13.401274
-3.1293328 3.0483313 -0.31293619 9.6937876
-2.6328745 3.1415992 -0.23440048 10.463955
-2.0720186 3.2864323 -0.24143371 10.190769
-1.5464913 3.4543381 -0.28897768 9.3402758
-0.92288864 3.2816315 -0.3137725 8.5235538
-0.28389311 3.4348493 -0.44203538 6.5097857
0.036928885 3.492795 -0.33112133 8.3790083
4.6388555 3.2854323 -0.58348835 8.2436275
5.1327763 3.5136528 -0.52958167 9.382164
5.4579954 3.5160904 -0.56510508 9.3286495
7.0423446 3.3452022 -0.17605296 13.463232
7.2312813 3.0986996 -0.18328945 13.24991
-1.8066006 3.6714611 -0.25013053 10.5
-1.4044594 3.7146802 -0.21254839 10.782785
-0.86928308 3.8817031 -0.22530198 10.679521
-0.28585023 3.9373527 -0.2476344 10.387019
0.05009193 3.7800856 -0.25296149 10.211878
4.6046443 3.9710135 -0.50585294 9.4467678
4.90592 3.6809132 -0.4493705 10
5.5977125 3.711256 -0.51382339 10
6.5889482 4.1920552 -0.36537951 11.59263
6.8081017 3.8914821 -0.17693791 13.45022
-0.61235702 4.2344236 -0.36588681 9
-0.22422126 4.3165531 -0.33951864 9.5224047
0.31245571 4.5140352 -0.29402456 10.292738
0.70492882 4.6876941 -0.25518847 11.055607
4.465744 4.5031347 -0.53236473 9.4887428
6.5154433 4.394278 -0.35023889 11.823664
6.6788931 4.432024 -0.31049711 12
0.59000117 4.8263597 -0.088409446 13
0.93986136 5.082099 -0.29295111 10.888884
1.4483263 5.2756605 -0.2627854 11.450716
1.9109395 5.3675079 -0.048362002 14
4.2893648 4.8718052 -0.59534621 9
5.9880733 5.3802009 -0.19919336 13
6.2459431 5.1252394 -0.27239829 12.472063
1.6108415 5.5275154 -0.23344472 11.916512
2.1311879 5.7084746 -0.2178342 12.494156
2.5971932 5.8574386 -0.2131431 12.783783
3.0571284 5.9956398 -0.50859004 10
5.9548607 5.6128397 -0.1905344 13.176013
6.1005049 5.6231689 -0.31447488 12.199235
2.7639101 6.0781469 -0.21899152 12.350029
3.2070827 6.0990229 -0.34619564 11.447483
3.9338698 6.4194803 -0.13128684 13.711719
4.4397736 6.3845425 -0.19052762 13.338707
4.9956179 6.5596857 -0.27597564 12.492942
5.67943 6.3424311 -0.2067064 13.081923
4.0117607 6.6589327 -0.29186362 12.00296
4.7284513 6.6507759 -0.29943091 11
5.1943026 6.7482138 -0.29175392 12.418804
5.5570173 6.799098 -0.29878783 12.500326
20.799442 -11.55694 0.0036224839 15
17.994253 -10.84754 0.024027131 15
18.022789 -10.825494 0.017698403 15
18.056164 -10.781728 0.016135726 15
-0.99453127 -6.6374497 0.0039030225 13.666667
-1.8067704 -6.017168 0.079702944 15
-1.5909464 -6.0806494 0.077177808 15
-0.71584618 -6.3718319 0.07056044 15
-0.2246595 -6.1763783 0.071203724 15
0.23736179 -6.0342174 0.064622939 15
-2.027328 -5.6438751 0.078651652 15
-1.5775907 -5.9731684 0.080448233 15
0.48931724 -5.9218674 0.065933615 15
0.75693107 -5.805563 0.066870511 15
-2.1877017 -5.3875666 0.084691793 15
1.1915889 -5.3439474 0.016751885 14
1.2052591 -5.3343701 0.016138915 14
-2.5829475 -4.5235405 0.073034734 15
-2.7175107 -3.6868525 0.060998492 14.776023
3.4915762 -3.9048753 0.037923474 15
3.7444949 -3.7602861 0.033339906 15
4.4498448 -4.1130896 0.032965682 15
-2.6983666 -3.5875912 0.070969783 15
8.9417906 -2.2539577 0.01758505 15
-3.6090307 -1.7552528 0.059655182 15
-3.5727558 -1.7419674 0.065609492 15
-2.4145794 -1.1446306 0.03756018 14
-2.3855929 -1.1256502 0.0420173 14
-4.810605 0.57333624 0.016823461 13.996094
-4.6299944 0.56512904 0.036109105 14.5
-5.0254202 1.0215671 0.062031373 15
-4.5375228 0.63353282 0.056263149 15
-5.1101222 1.2363039 0.056484737 15
-5.4230175 2.0702574 0.065521017 15
7.5209141 2.3131869 0.0039743227 15
-4.5164461 2.5176399 0.050311729 15
-3.7273524 2.5867569 0.044374265 15
-3.5759192 2.6536202 0.048706636 15
-2.0758979 2.7543693 0.036152393 15
7.1954041 2.9653847 0.0034278585 15
7.3807287 2.657866 0.0047121095 15
-2.4277778 3.167588 0.036788538 15
-2.0835514 3.3656187 0.036360636 15
-1.6806028 3.0955267 0.034821078 15
-1.0564914 3.3621488 0.030251548 15
7.0740447 3.3661382 0.0036903601 15
7.2208576 3.0159512 0.0046286979 15
-1.2654197 3.741791 0.027262015 15
-0.8698743 3.892385 0.022684537 15
-0.36237907 3.992981 0.018625356 15
0.061140217 4.0440927 0.019289579 15
6.8603964 3.8377199 0.0031335952 15
0.59941179 4.4421892 0.018496715 15
0.73156822 4.4908781 0.012241713 15
0.9342711 5.1662788 0.0066156341 15
1.7771568 5.5739441 0.02548454 14.5
2.0783975 5.6566448 0.0036783798 15
2.5834665 5.8151102 0.0057184221 15
3.9432492 6.4651537 0.0031919619 15
4.3799314 6.3859382 0.0044908319 15
3.8306487 6.6216936 0.0032650721 14
13.498219 -7.3618274 -2.003516 6
14.161975 -6.6161127 -2.0101938 6.999999
14.249243 -6.2391376 -2.0034776 6.9375
13.168444 -11.509949 -1.8077697 8
13.90007 -10.955351 -1.8457732 8
14.140948 -10.858506 -1.8466451 8
14.282331 -10.724169 -1.8578585 8
14.466993 -10.594158 -1.8835672 8
10.794146 -10.066414 -1.8411355 7
10.874744 -10.008047 -1.8573954 7
14.789948 -10.261409 -1.8877683 8
14.86866 -10.219354 -1.8988461 8
15.223471 -10.122291 -1.931152 8
10.90097 -9.9806576 -1.8573889 7
15.111685 -9.8816376 -1.9304849 7
15.476624 -9.6378021 -1.9290886 8
11.365738 -9.4679832 -1.8587995 6.9995117
11.627588 -9.3009377 -1.8704053 7
15.364367 -9.327157 -1.899124 7.875
11.7827 -9.0784264 -1.9020448 6.5
15.170906 -8.8137913 -1.832118 8
15.301989 -9.154562 -1.8835763 8
12.296066 -8.591074 -1.9586101 6
12.493721 -8.5208378 -1.9049335 7
15.19623 -8.7395077 -1.8397154 8
15.217379 -8.7017946 -1.8485591 7.9995117
12.66304 -8.2835064 -1.9264674 6.75
12.879657 -8.1255569 -1.9207475 7
15.192703 -8.2968006 -1.8146865 8
15.208382 -8.254878 -1.809171 8
12.995905 -7.9057503 -1.9518757 6.5
15.194212 -7.9815183 -1.7957703 8
15.426159 -7.7039342 -1.8229935 8
13.476954 -7.3446846 -1.974793 6.25
13.639239 -7.2339764 -1.9597567 7
15.58886 -7.5742135 -1.823879 8
15.655365 -7.4242163 -1.8332599 7.9998779
7.7690387 -6.9408765 -1.8575113 4
13.855795 -7.0260382 -1.9822639 7
14.039151 -6.8114777 -1.9915017 7
15.894729 -6.8958712 -1.8374856 8
7.9712005 -6.6155248 -1.8889024 3
8.0204639 -6.4883299 -1.8410075 3.75
14.154945 -6.568553 -1.9942584 7
15.970346 -6.7838564 -1.8353851 8
16.057896 -6.7527676 -1.8447694 8
8.2389259 -6.1483612 -1.8605325 3.375
14.209045 -6.2681999 -1.9967315 7
14.424712 -6.0088058 -1.9974664 7
8.2768154 -5.9521194 -1.8143764 4
8.4604893 -5.6706457 -1.845649 3
8.5583324 -5.4878864 -1.8351555 3.5
5.866818 -5.070056 -1.7959087 1
6.7498088 -5.1556664 -1.8329154 2
8.7628222 -5.1106291 -1.8569782 3
8.900526 -4.9281144 -1.8334239 3.5
6.2722445 -4.5397692 -1.8025973 0.95312452
7.1166515 -4.6476779 -1.8436903 2
9.0737572 -4.5922928 -1.8393036 3.5
6.2957487 -4.3676577 -1.776186 1
6.4725428 -4.1609588 -1.8003836 0.625
7.3820238 -4.2125473 -1.8468548 2
9.3990078 -4.1495876 -1.8486469 3.9960938
6.6280937 -3.8696353 -1.7926875 0.74951172
6.8467736 -3.6335928 -1.8063158 1
6.7962852 -3.4118619 -1.7675822 1
6.831461 -3.4516401 -1.7878134 1
7.8206902 -3.3431273 -1.8571336 2
9.5458612 -3.5818372 -1.8575118 3
6.79778 -3.1347027 -1.738582 1
6.9562454 -2.9114542 -1.7614405 0.99999994
7.5993495 -2.9783483 -1.7748784 2
7.7497702 -3.0559697 -1.81574 2
7.1188965 -2.63831 -1.7778749 1
7.4864759 -2.5624437 -1.7207816 2
7.858305 -2.5177312 -1.8012199 2
7.1370363 -2.3768692 -1.7581086 0.94530487
7.3011842 -2.2117615 -1.7897642 0.99999738
7.9640903 -2.2056947 -1.7950141 2
8.0356188 -2.0944719 -1.8060771 2
8.7539845 -2.2192326 -1.6176944 4
7.4459124 -1.6620476 -1.7928476 0.99999988
8.1416721 -1.8621776 -1.8265319 2
8.7911625 -1.9426901 -1.6251916 3
8.8705502 -1.6081126 -1.609912 4
7.4800134 -1.395277 -1.7884481 1
8.2010784 -1.5301577 -1.825794 2
8.8841686 -1.5279553 -1.6158223 4
7.385663 -1.0202482 -1.6894847 1.4743545
7.4024382 -0.55186087 -1.6881359 1.4410388
7.6048617 -0.41412631 -1.796208 1
7.4008045 -0.17156599 -1.7350702 1.0643826
7.6314983 -0.34732893 -1.7993836 0.99951172
7.5500565 0.21108398 -1.7230903 1.4562111
7.7758226 0.34207436 -1.7284369 1.8322482
7.5523739 0.70778096 -1.6898865 1.7780819
7.8786249 0.59966087 -1.7345921 2
7.0219002 1.0761904 -1.6728078 1
7.4797878 0.95178908 -1.7250915 1.4445226
7.7175636 0.97433233 -1.706688 2
6.7873936 1.3548067 -1.6262122 1
7.1539836 1.5182726 -1.7255545 1
7.219563 1.513566 -1.7340629 1.0172544
6.7457495 1.6076061 -1.615573 0
7.0737591 1.7556832 -1.7141131 0.140625
7.3419514 1.6309855 -1.7425065 1.2891279
7.0747442 2.108592 -1.7475836 1
7.2682343 2.0426974 -1.6383667 2
3.3615036 5.9371734 -1.6122572 1
3.5647299 6.0668564 -1.6468112 1
3.7532215 6.1063795 -1.6976994 1
21.838331 -14.819963 -1.3955526 11
21.889477 -14.600336 -1.416986 11
21.579868 -14.280187 -1.3761692 11
21.766842 -14.157333 -1.3972061 11
22.06077 -14.148892 -1.4358083 10.578125
21.904568 -13.923147 -1.3975141 11
22.014278 -13.738919 -1.4467916 10.242188
21.950531 -13.50452 -1.3838948 11
22.093323 -13.350389 -1.3943276 11
21.994804 -13.123863 -1.3612008 11
22.094608 -13.050894 -1.385814 11
22.329054 -12.665901 -1.4472313 10
21.047178 -11.634905 -1.2885888 11
22.222715 -11.620248 -1.353405 11
21.118961 -11.446742 -1.3203624 10.25
21.242931 -11.252594 -1.3264861 10
22.225109 -11.499544 -1.3550329 11
22.417688 -11.218271 -1.3459758 11
22.389713 -11.103749 -1.3454978 11
22.456806 -11.010826 -1.358546 11
22.505932 -10.694019 -1.3596284 10.812454
22.383375 -10.191253 -1.3203114 11
22.470774 -10.128687 -1.3401141 11
22.665247 -9.8984642 -1.3465824 10.972656
22.939518 -9.604208 -1.330641 11
22.950642 -9.5166101 -1.3576376 11
23.091919 -9.124115 -1.3988228 10
23.751205 -8.8748741 -1.386905 10
16.785864 -7.3509836 -1.3963051 10
16.804588 -7.3790731 -1.3868375 10
-1.4951138 -6.2529426 -1.2319084 2
-1.7723446 -5.7463527 -1.2222748 1.9791667
-1.7830377 -5.5450549 -1.2831297 0.99951172
-1.5872506 -5.480474 -1.2866729 0
3.5954387 -4.1467934 -1.2021694 2
3.6070328 -4.1338792 -1.2033913 2
4.1291223 -4.0140381 -1.2179357 2
4.2094874 -3.8375068 -1.2323904 1.5003256
7.5893493 -2.9197268 -1.3429937 4.75
7.6888151 -2.9707618 -1.4046208 4.4375033
7.5054088 -2.6044862 -1.3426692 4.5
7.7873001 -2.6320486 -1.4416574 4.1094189
8.0817671 -2.4881322 -1.3639596 4.5
8.3223095 -2.3757482 -1.3275282 5.5
8.7548275 -2.2043746 -1.4017699 5.494132
8.5595798 -1.6613274 -1.4226178 4.9941339
7.780992 -1.2076507 -1.3851737 4
8.3807106 -1.2605555 -1.3811541 5.003664
8.7050896 -1.3325665 -1.3464532 5.4887948
8.8390923 -1.3950813 -1.323842 5.8993974
7.5715952 -0.91894972 -1.4174175 3.6903105
7.7540693 -1.0830922 -1.325341 4.5416975
8.5029707 -0.96046972 -1.2478527 5
8.8508568 -1.0799443 -1.3108752 5
7.5878267 -0.61236465 -1.5012054 3.1250191
7.734808 -0.54034978 -1.3194309 4.4895248
8.3965416 -0.41611132 -1.2181849 6
8.421279 -0.43445969 -1.224852 6
7.4763317 -0.13860905 -1.3938694 3.6323166
7.6565518 -0.23570436 -1.2754802 4.7408047
8.3888502 -0.35633424 -1.2186115 5.9999847
8.4019289 -0.37345678 -1.2126375 6
7.4725246 0.05685034 -1.2234811 4.9099503
7.7466645 0.18936913 -1.3649087 4.0992479
8.0668888 0.33108276 -1.3833973 4.5004883
7.5589542 0.70369601 -1.4374263 3.545799
7.9050174 0.66566825 -1.3762878 4.3435879
8.0380859 0.60065848 -1.4443982 3
7.020453 1.1925923 -1.4819977 2.496088
7.4699574 0.97251683 -1.4399993 3.4039464
7.7646661 1.0331748 -1.2841598 5
5.435729 1.5957701 -1.2080855 2
6.7793589 1.3386443 -1.5991697 0.99951172
7.0123377 1.3203318 -1.4929085 2.4786229
7.3179379 1.2528341 -1.2522171 4.6113882
7.6037993 1.3840709 -1.3209052 4.5071278
5.1610265 1.8586001 -1.2010348 2
5.4918265 1.6443059 -1.2192594 2
7.3928828 1.720908 -1.5189168 3.0029297
7.1509275 2.2930276 -1.335202 4
7.2198558 2.2862253 -1.3497638 4
-4.3436823 2.4787335 -1.2024004 0
7.1236601 2.4224544 -1.276233 4
4.0753984 2.9563551 -1.2030096 0
4.4754686 3.1738381 -1.2058934 2
3.1215324 3.9491911 -1.2051058 0
3.5922844 4.337688 -1.2780261 0
3.7333813 4.2389069 -1.2912085 1.1563468
3.5708902 4.6613789 -1.3184483 1.4374998
3.734571 4.5028443 -1.2540852 2
3.5298886 5.1261568 -1.2877843 2.4921799
3.8020415 4.8551168 -1.3314276 2
1.3692319 5.3087053 -1.2028253 2
3.5755587 5.241498 -1.2461863 2.9375
2.6991363 5.7526731 -1.2539136 3
3.0520606 5.8419533 -1.3895798 2.342689
3.2634969 5.9764194 -1.4264727 2.422627
3.9426038 5.9916911 -1.4282031 3
4.1917868 5.9837828 -1.2864773 4
3.3503792 6.0176363 -1.4391072 2.4103394
3.8589859 6.1687355 -1.4280455 3.1948826
4.2056894 6.0932055 -1.3225179 4
24.029282 -12.800956 -0.94072914 12
24.166494 -12.587299 -1.0211107 12
24.24995 -12.31327 -1.0776988 11
-1.6819409 -6.4320517 -0.80580521 7
-0.89393854 -6.498395 -0.80214399 7
-1.6702592 -6.2071609 -1.0002555 4.5
-1.7492342 -5.9125891 -1.062165 3.8332002
-1.3530055 -5.6171799 -1.0698309 2.75
-0.97776812 -5.9171095 -1.1099936 3
-2.0770979 -5.2724705 -0.86070782 5
-1.8546717 -5.560288 -1.0784092 3
-1.3460524 -5.5664034 -1.0520039 3
-1.1560493 -5.5599151 -1.081894 2
1.5784715 -5.3138371 -0.85330069 5
1.6907451 -5.2582412 -0.84941244 5
-2.0902102 -5.0487537 -0.82422876 5
1.7798128 -5.1535201 -0.83771718 5
2.1096671 -5.0414705 -0.84127003 5
-2.1174421 -4.5582294 -0.88111043 3.488327
-1.7912695 -4.4983692 -0.99106133 2
-1.0462444 -4.7160091 -0.81668049 3.9931641
2.3873072 -4.5385494 -0.80262971 5
2.5420411 -4.4992561 -0.80427706 5
3.034296 -4.5083036 -1.150636 2
-2.8090286 -4.0310011 -0.86687088 4
-2.6780496 -4.0810246 -0.8781538 3.3657348
-2.076499 -4.1961102 -1.0081058 1.3631582
-1.9257752 -4.1854486 -1.0578499 0
3.0704052 -4.2656188 -1.1102177 2
3.4106131 -4.0954003 -0.87578917 4.5215755
3.6620493 -4.0978136 -1.1712165 2
4.228838 -4.0154314 -1.0706506 3.3745468
-2.8475852 -3.696178 -0.86309516 2.894506
-2.6354825 -3.8733265 -0.94421077 2.098
-2.1477532 -3.7804704 -0.97323304 0.96223962
-1.9738612 -3.9772048 -0.9986304 0.62475586
3.9701796 -3.811049 -0.86311275 5
4.2828236 -3.9215918 -1.0102818 3.9936702
-2.8759069 -3.4734578 -0.81510389 3.183187
-2.4697733 -3.4834657 -0.95293748 0.88932294
-2.386749 -3.5385528 -0.95499814 0.5
-2.9959164 -2.9448609 -0.81013691 2.398119
-2.6772985 -2.8352089 -0.84709889 0
2.3874979 -2.9380682 -0.84253579 1
2.514776 -2.9022889 -0.859703 1
7.5971022 -2.8279107 -1.1600672 6
7.8446107 -2.9924841 -1.0961039 6.6133032
8.0001793 -2.855736 -1.0257667 6
-3.2355726 -2.6272411 -0.8382163 1.8867807
-2.9791393 -2.7352099 -0.86351418 0.87538451
-2.6437283 -2.637311 -0.82551944 0.20833334
2.5874653 -2.7854321 -0.86880863 0
7.497653 -2.5597258 -1.1305969 6
7.9391756 -2.6631875 -0.94646597 7.5154791
8.0080585 -2.6395597 -0.8726567 8
-2.9399896 -2.1861219 -0.8077054 0.49959311
7.5693793 -2.396003 -1.1561067 5
8.703187 -2.3654394 -0.94436234 8
8.9567623 -2.2583146 -1.0543101 7.625
-3.2251713 -1.7892557 -0.80546111 0.99951172
-3.1430857 -1.8076725 -0.80655658 1
8.7435427 -1.7121971 -1.0313065 7.5039368
8.9215603 -1.6707659 -1.1067247 7.1492109
-3.7083845 -1.556228 -0.81517231 1.8744812
-3.3475602 -1.4934657 -0.8055017 1
-3.1975672 -1.5501415 -0.80336314 1
8.7824898 -1.2158277 -1.0955942 7
9.0877953 -1.503264 -1.0802993 7.476768
9.2047386 -1.3204974 -1.1399413 6
-3.9438863 -1.1857967 -0.80296946 3
7.8556633 -0.99867672 -1.1392417 6
8.7126989 -0.99317992 -1.09338 7
8.882906 -1.021655 -1.1216514 7
7.973598 -0.73204345 -1.1519117 5.833333
8.0278769 -0.72207206 -1.163897 6
8.6169643 -0.70339751 -1.0698295 6.9833984
8.9288158 -0.59548122 -1.1465065 6
7.4583979 -0.095512666 -1.1865462 5
7.8527131 -0.21131209 -1.1328025 6
8.3077812 -0.088254094 -1.0434222 7.031312
8.4479237 -0.21129531 -0.93736541 7.6613722
7.4467745 0.044635128 -1.1931181 5
7.8434124 0.30158478 -1.1342119 6
8.1167803 0.23213826 -1.1785297 6
7.5878963 0.70641327 -1.098375 6
7.9461246 0.62716663 -1.1548185 6
8.159193 0.58665895 -1.0664301 6.9999967
7.3958645 1.1423607 -1.1468492 5.0834579
7.7567387 0.97955418 -1.1259253 6.0522718
8.0972166 0.88402915 -1.0564835 6
5.3610649 1.594878 -1.1754198 2
7.469183 1.4187765 -1.1156964 5.8792658
7.7804165 1.3190625 -1.0360198 6.8365874
-5.2395058 1.9735799 -0.86597466 5
-5.1917429 1.9911399 -0.8598758 5
5.1029673 1.8890132 -1.1893656 2
5.3976498 1.7274488 -1.1274118 2.7500572
5.6303353 1.7536633 -1.1488265 3
7.1930871 1.9804741 -1.065955 6
7.2718048 1.9406247 -1.0859551 6.0000038
7.7087545 1.8446968 -0.9303745 7
-5.2242699 2.0032544 -0.86395562 5
-4.9699321 2.0883214 -0.83154118 5
-3.7390914 2.3147035 -1.0067034 1
-3.57705 2.3366151 -0.97322184 1
4.9137397 2.3236675 -1.010987 3.7098036
5.482904 2.0984738 -0.95950317 5
5.8935266 2.0721383 -1.036725 5
7.1373997 2.2266171 -1.0806239 6
7.3046794 2.0823658 -1.0976601 6.010417
7.6319199 2.0872345 -0.87422949 7
-4.4166737 2.4715767 -1.0654287 2
-4.2652006 2.4956055 -1.085428 1.0082357
-3.7862675 2.6675141 -0.88693452 2.9931793
-3.5082812 2.6272635 -0.96077228 1.5257229
-2.2471642 2.4889636 -0.80319351 0
4.7450995 2.5096412 -0.87065774 5
5.0352664 2.5189049 -0.92061853 5
5.8760004 2.7832284 -0.91255915 6
7.0186639 2.5584261 -1.0778344 5.9687095
7.3126965 2.7244053 -0.90835387 6.9375
-3.3860803 2.8751774 -0.89238226 2.4571047
-2.8950338 3.0412469 -0.8888334 1.8423531
-2.6668725 3.1299586 -0.87142575 1.7486589
-2.3880134 3.1561658 -0.89167213 1
3.9423337 2.9277563 -1.0026444 2.6321669
4.0445528 2.9472272 -1.1960694 5.1698788e-26
4.4652767 3.1716638 -1.1954994 2
5.8666239 2.8619409 -0.90889251 6.1512089
6.1578093 3.1866155 -0.87333453 7
6.980072 2.960402 -1.0537894 5.609375
7.2081747 3.0475342 -0.86344618 7
-2.4256506 3.2189269 -0.86071062 1.6240234
-2.3007469 3.330683 -0.85315347 1.7947469
-1.8630092 3.5211258 -0.88778228 0.96731567
-1.5619233 3.5946 -0.88244319 1
-1.030416 3.415741 -0.80616534 0.88045251
-0.66638792 3.4804792 -0.80123591 0.99609375
0.025046542 3.5948496 -0.81267339 1
3.7334905 3.2437706 -1.1813526 0
4.3826919 3.2661896 -0.89084446 5
4.4228687 3.2537374 -0.94398892 4.4375
5.6570415 3.5919108 -0.95377612 6
6.2575512 3.2207308 -0.89107651 7
7.0014944 3.4308782 -0.9116866 6.65625
-1.662678 3.648612 -0.82470268 2
-1.3631389 3.7305551 -0.86212313 1.5391185
-0.5166384 3.9240081 -0.90819848 1.024415
-0.038059477 3.6492555 -0.80311549 0
0.038910322 3.621259 -0.82226896 1
2.9337497 3.9098172 -1.1663158 0
3.9797494 3.9658995 -1.0944574 2.999939
4.0113754 3.927299 -1.0928084 3
5.1591883 3.9812474 -0.91980439 6
5.2149782 3.9895232 -0.92045867 5.9921875
5.7378316 3.7061253 -0.97716022 6
6.9318047 3.6812103 -0.86853242 7
-0.54828131 4.1054025 -0.85212606 2.2892156
-0.18755274 4.1836548 -0.90152955 1.8361919
0.04888735 4.3231597 -0.84253752 3
1.5567279 4.2368402 -1.0643547 1
1.7630434 4.303544 -0.98954034 2.095993
2.2207031 4.2386608 -1.1375245 0
3.8296394 4.2597742 -1.1190839 3
5.112844 4.0687113 -0.81133753 6.9707026
5.3046603 4.1171508 -0.91881514 6.3544784
5.7272062 4.2386417 -0.91077763 7
6.1323724 4.3794408 -0.96854818 7
6.4652586 4.3940849 -1.009917 7
0.26581523 4.4609156 -0.87799191 3.0003052
0.52208805 4.5313935 -0.96923256 2.0137806
0.84587038 4.768528 -1.0098033 2.1859369
1.5044163 4.6820183 -1.083168 1.8124998
1.8613445 4.7329788 -0.81673205 4.9998627
2.1377106 4.5355778 -1.0005826 3
3.5749133 4.7009873 -1.1385485 2
3.7023258 4.6094217 -1.1592772 3
4.6707883 4.7280388 -0.89048636 6.5052543
4.8839798 4.7896233 -0.97143751 6.000001
5.3302193 4.7405801 -0.99938774 6
6.3467655 4.5018177 -1.0133809 7
6.4491301 4.4308739 -1.0206153 7
0.7639069 4.8269963 -0.8476907 3
1.0052698 4.9795952 -0.81667149 4.9672775
1.4232072 5.1201134 -0.90855259 4.4852476
1.6812252 4.89044 -1.1255181 2
3.8470919 5.15027 -0.80193263 6.9999952
4.5947838 4.8459463 -0.83417934 6.984375
4.9668169 4.8914757 -0.95666897 6.3914561
5.2948928 5.0367627 -0.97983527 6.647819
1.177165 5.23979 -1.1607382 2
1.3717761 5.3025055 -1.1960139 2.0001221
1.834868 5.3582764 -0.95587355 4.5785966
2.0073717 5.4604712 -0.93722802 5
3.8171387 5.2766314 -0.81237102 7
5.3780518 5.282896 -0.83463663 7.9999981
2.7296929 5.9452829 -0.81295902 7
2.9748812 5.9053049 -0.82271242 7
3.2193899 5.9726582 -0.9668982 6
3.9844842 5.9963779 -1.0260797 6
4.0067558 5.9898653 -1.0449432 6
2.9546623 6.0308237 -0.84217119 7
3.3624403 6.1458888 -0.92805696 6.6653647
3.9097538 6.1392264 -1.0815952 5.7981143
4.1972713 6.2198563 -0.95950967 7.03125
4.5052195 6.3281479 -0.992818 7
3.9005182 6.5190315 -0.8478775 7.9816132
4.0427418 6.5245466 -0.85127306 8
17.887381 -10.823092 -0.44867718 13
17.881207 -10.753693 -0.45772472 13
-1.6197009 -6.4210043 -0.74777544 7
-1.2042012 -6.5383945 -0.42934954 10
-0.98767328 -6.5109329 -0.58226234 8.5
-0.63196886 -6.5308113 -0.56197059 8.7405844
-1.6839004 -6.2693205 -0.62512147 7.9748678
-1.2584815 -6.119031 -0.51564384 8.8847351
-1.1471117 -6.2365546 -0.59163314 7.666667
-0.64301002 -6.3062153 -0.63297951 7.9959965
-0.066125177 -6.1547813 -0.44509602 9.3906164
0.19908932 -6.1243024 -0.48562068 9
0.45228541 -6.0795641 -0.49316245 9
-2.0563886 -5.7828703 -0.48593253 9
-1.8546896 -5.9046636 -0.52897394 8.125
-1.3034863 -5.9404516 -0.48215795 9
0.14541344 -5.9708443 -0.61581135 7.25
0.67468524 -5.8777084 -0.49867707 8.7499933
1.1208379 -5.7766595 -0.47023642 9
1.2016343 -5.7624111 -0.46907502 9
-2.0952382 -5.26898 -0.51272744 8.2594624
-1.9566363 -5.5513821 -0.63094878 7
1.038035 -5.5266814 -0.54451382 7.9375
1.4116426 -5.3926077 -0.51291633 8.25
1.7465732 -5.2334652 -0.50952297 8.2661085
2.0073435 -5.2437882 -0.41773468 10
-2.162261 -5.0790062 -0.42160651 9.1316757
1.7899523 -4.9985886 -0.49112436 8.3642139
2.2805448 -4.9684649 -0.5221653 8.1101112
2.4380555 -4.8853602 -0.50687802 8.3113003
-2.43011 -4.5558281 -0.4952929 8.026062
-2.2637212 -4.6752028 -0.73433244 5.4999981
-1.2420905 -4.5928679 -0.6233505 6
-0.99304688 -4.5757418 -0.61180162 5.9999771
1.8263695 -4.7581596 -0.40745395 9
2.3956099 -4.5167069 -0.75387335 5.2752748
2.4799626 -4.5312972 -0.75347418 5.4519033
2.92553 -4.4547558 -0.44230092 9
-2.8046584 -4.0978994 -0.48699272 8
-2.5290885 -4.1667452 -0.56589556 6.7667894
2.5717754 -4.3915453 -0.77700651 5
2.9766698 -4.3080025 -0.72321117 6
3.4911957 -4.2646203 -0.42253739 9.5052128
3.6872442 -4.0291872 -0.47173923 9.0029297
4.2907209 -4.0279179 -0.59885693 8
4.5054588 -4.1391897 -0.52224654 9
-2.9197698 -3.6958976 -0.43542939 7.9815474
-2.5993848 -3.9190016 -0.56770897 6.416667
-0.56291366 -3.6987615 -0.67277253 3
3.472615 -3.9544539 -0.73028785 6
3.8776188 -3.9012332 -0.50449944 8.5293303
4.3272238 -3.9611444 -0.59990442 8.0062199
-2.9134316 -3.3299909 -0.46441007 7.3570142
-2.7044168 -3.4439516 -0.6120826 5.4169326
-0.34868243 -3.2060242 -0.52117908 4
-3.2322016 -2.9560413 -0.44555619 7.6091952
-2.9571912 -2.9955525 -0.67211771 4.023428
-2.6890569 -2.8222032 -0.70888758 2.5
-1.0230517 -3.099678 -0.73090291 0.056728389
-0.66303611 -2.9193153 -0.66029251 0.99957275
-0.12624395 -2.980669 -0.46283838 4.6017241
0.19905289 -2.8577247 -0.40133172 6
7.7927027 -2.8646603 -0.64526629 9.7550783
-3.2849686 -2.5288496 -0.61111319 4.9643946
-2.9941967 -2.6204848 -0.5669713 4.7284021
-2.6693141 -2.7711749 -0.69943106 2.9272723
-0.46666288 -2.665905 -0.5820843 0.99987793
-0.17011337 -2.5071976 -0.50377923 1.9146428
0.16775122 -2.4791765 -0.41078174 3.8292053
0.53138334 -2.5566359 -0.41404271 5
1.2763057 -2.4841976 -0.41546699 5
2.1115041 -2.5281467 -0.75401139 0
7.7458258 -2.6869259 -0.5366599 10.412112
8.2186012 -2.5457661 -0.64049971 10
-3.2795238 -2.0874767 -0.46664065 6.5215158
-3.0130048 -2.2543743 -0.67585611 2.4860203
-2.6523862 -2.0296681 -0.68322116 1.5
-0.0032060398 -2.3912914 -0.47371912 2
0.14987177 -2.2711158 -0.42480153 2.6291401
0.64879704 -2.278497 -0.49584109 1.2131008
1.1036224 -2.1151912 -0.50156009 1.4881999
1.3442355 -2.1993582 -0.5011127 2.2457616
1.6777959 -2.3950233 -0.5220437 3
8.2529793 -2.3750682 -0.65625155 9
9.0995417 -2.2444735 -0.40287924 11
-3.6676073 -1.8046006 -0.40636083 8
-3.305126 -1.8196834 -0.56776106 4.7946815
-3.0210743 -1.7050362 -0.73613477 1.3769536
-2.693316 -1.8886571 -0.67098784 1.5
1.0018694 -1.8523102 -0.40556914 2.6666667
-4.0100865 -1.2205435 -0.69096375 4
-3.7871025 -1.393616 -0.6608572 4.0235634
-3.4135528 -1.3977556 -0.60002875 4.1079149
-3.0664444 -1.4082382 -0.57084215 3.8489528
-4.0447183 -0.90129918 -0.68165994 4
-3.8572507 -0.98946416 -0.62954259 4.5258732
-3.5057385 -1.1891489 -0.61200953 3.8512249
-3.0926547 -1.1661592 -0.53932536 4
8.655714 -0.80760705 -0.65589976 10
-4.0837364 -0.69368798 -0.46832269 7.022995
-3.8761978 -0.63825601 -0.48767212 6.4640045
-1.6225061 -0.53829318 -0.40337545 0
8.6864395 -0.70700288 -0.66260326 10
-4.2340307 -0.11272534 -0.40316629 8
-3.9012566 -0.34255153 -0.44031271 7
-4.4716702 0.28009221 -0.40976512 8.1990566
-4.2928753 0.068016358 -0.41426152 8
8.2373791 0.35863799 -0.62253594 10
-4.8649769 0.62083119 -0.47387367 8
-4.4658885 0.44201389 -0.43780899 8
-4.3794117 0.43529779 -0.47785202 7.25
-1.6083264 0.57970083 -0.40214023 0
-1.5959594 0.58864647 -0.40321231 0
8.1647854 0.63211107 -0.50810075 10.674833
-5.0118527 1.0164719 -0.54111034 7.6093712
-4.7425928 0.90309459 -0.72367239 5
7.9737182 1.0666116 -0.51074052 10.495415
8.0385303 0.92820346 -0.54619062 10.179688
-5.0817471 1.4099035 -0.53426629 7.9431357
7.7776403 1.4511127 -0.62284786 9.5577469
-5.2849164 1.9871764 -0.54995012 8.0340528
-5.1649485 1.6106333 -0.45230263 9
7.500948 1.9516799 -0.60099518 9.8163967
7.6695962 1.7708504 -0.4772464 10.701111
-5.2399406 2.0537148 -0.47320861 8.868886
-4.9249792 2.229547 -0.428325 9.2546234
-4.7255421 2.1827583 -0.69828063 6.1775174
-4.18223 2.3978 -0.62516713 5
7.4337888 2.1108441 -0.60142523 9.8146105
-4.7070017 2.4218216 -0.54038787 8.0000029
-4.1922984 2.5030365 -0.54375142 7.2778597
-3.7929871 2.6623824 -0.5078634 7.412323
-3.3654447 2.6812377 -0.59079885 5.96069
-3.0048268 2.7309306 -0.57483804 5.8257103
-2.7714112 2.789453 -0.47780877 7
-2.1286097 2.5470943 -0.60681784 3.0000596
-1.8053932 2.6645644 -0.46565199 5.324729
-1.5734334 2.7762566 -0.4229818 6
7.1692333 2.6452608 -0.6969856 9.0703745
7.2650509 2.648129 -0.47355622 10.712828
-3.8055158 2.8065858 -0.46031487 8.0329323
-3.3089495 2.9617281 -0.46740305 7.7886677
-3.0493286 2.975724 -0.5092358 6.9631095
-2.5714016 3.047235 -0.65476203 4.4820089
-2.1565073 2.985085 -0.50674486 5.9807105
-1.894033 3.076364 -0.48947755 6.0717449
-1.3808908 2.8721795 -0.42379183 6
-1.0100455 3.0326109 -0.57226723 3.4046941
-0.6489743 3.1913319 -0.44028491 6
4.6336184 3.0942359 -0.59331679 8
5.0908127 3.0860693 -0.65467596 7
5.4038663 3.1535559 -0.68485558 7
5.6518898 3.0561419 -0.79636288 7
7.0803003 2.970983 -0.55350447 10.081367
-2.5878115 3.2361083 -0.64541984 4.8505602
-2.1529198 3.3750706 -0.60022074 5.1729212
-1.9613571 3.2491412 -0.45996258 6.9320784
-1.5098537 3.2850223 -0.43105066 7
-1.0065742 3.3887899 -0.75286549 1.5639714
-0.53695905 3.4018865 -0.51094872 5.3615446
-0.19935487 3.4272659 -0.48145643 5.8589163
0.04561796 3.4455271 -0.47968197 5.9375
4.6174402 3.303479 -0.58740807 8.1931334
5.0504427 3.4432821 -0.54995984 9.084877
5.52772 3.5445809 -0.56846172 9.4103928
5.6304741 3.4805613 -0.62935138 8.9046774
6.0659494 3.43189 -0.74774188 8
6.7735586 3.5426679 -0.70108861 9.0004883
6.9191055 3.390481 -0.42521471 10.998726
-1.6364686 3.6427758 -0.40124342 8
-1.319562 3.7735147 -0.43753332 7.4651732
-0.80593014 3.9273653 -0.49655151 6.6679592
-0.65692252 3.8220129 -0.54796529 5.9700594
-0.12327999 3.6300383 -0.48025525 6.437871
0.027696721 3.6145387 -0.79650986 1
4.3652782 3.7476306 -0.60497153 8
4.5663562 3.8920236 -0.54252756 9.0088654
4.895813 3.6747909 -0.4469493 10
5.4916549 3.6538057 -0.49761355 9.9998779
5.643528 3.7038717 -0.50282097 10
6.7238312 3.7486701 -0.59754616 9.8350296
6.8346381 3.6335959 -0.43204516 10.98291
-0.80786955 4.0096116 -0.41177502 8
-0.63238299 4.0880852 -0.65176141 4.8921518
-0.12139006 4.1954641 -0.62022984 5.6195269
0.01667645 4.329978 -0.47567707 7.7441287
0.51391643 4.3893857 -0.6167776 6
1.8035707 4.2901115 -0.65936637 6
4.1336861 4.3926229 -0.65017879 7.96875
4.4667988 4.1035156 -0.55208635 9
5.0972271 4.0702353 -0.78761959 7
6.6086769 4.1188087 -0.44010466 10.988277
-0.014507702 4.4242964 -0.70449126 4.8368225
0.20840985 4.5262566 -0.54219711 7.2314634
0.66721439 4.5525126 -0.61449099 6.3729343
0.80713582 4.5778842 -0.65319359 6
1.8558013 4.6060228 -0.75818312 5.4397855
3.9923887 4.570632 -0.66294789 7.9372559
4.19666 4.6156998 -0.65325505 8.3307314
4.4195404 4.4523067 -0.45228544 9
6.3776855 4.6779237 -0.44254392 10.625
6.4946661 4.4380627 -0.53011382 10.25
0.72765183 4.8421631 -0.49785051 7.9375
0.93098032 4.9399691 -0.62870884 7.0299449
1.2084038 5.1118994 -0.76043606 6
3.878747 5.105938 -0.79623556 7
4.3088121 4.9934158 -0.62321705 9
4.9533868 5.0867991 -0.74766207 7
5.223218 5.1420569 -0.79254532 8
6.226285 5.0841074 -0.45431179 11
0.96025229 5.2358146 -0.55893731 8.1308594
1.3529966 5.3365946 -0.40923417 9.9748611
1.7774746 5.396059 -0.60518539 8.000062
2.0535579 5.5388861 -0.63887119 8
3.7958522 5.2290115 -0.7988025 7
4.992815 5.2037692 -0.77095789 7
5.3241982 5.2336268 -0.79652685 8
5.9855423 5.5418534 -0.4651137 10.5
6.1133657 5.3947134 -0.46499616 11
1.8431245 5.6480026 -0.53450531 9
2.2451873 5.7153969 -0.49758768 9.5608768
2.6535702 5.9022264 -0.64251125 8.5985336
2.9798782 5.9604583 -0.50399953 9.9965229
5.9247751 5.7611127 -0.48711479 11
2.7666345 6.0296402 -0.69994116 8.0053968
3.1141176 6.0762024 -0.59086633 9.3757639
3.2930026 6.2150354 -0.76268744 8.0000305
3.8646345 6.3694763 -0.68336111 9.0205612
4.1659088 6.1958923 -0.61141115 9.5646057
4.5298343 6.3402443 -0.47942731 10.68749
5.6158834 6.3422093 -0.62186903 10
3.4846923 6.4242611 -0.77359593 7
3.9472692 6.458786 -0.51569664 10.344961
4.0018463 6.4219251 -0.42541987 11
4.6390643 6.4294195 -0.45405355 10.996033
4.9760356 6.5741677 -0.48481363 11
5.4158173 6.7511292 -0.67658281 10
20.841961 -11.401908 -0.17171544 14
-1.204706 -6.6114364 -0.071861766 13.006929
-0.86696327 -6.5425262 -0.11249594 12.546631
-0.65737671 -6.5164576 -0.098546356 12.5
-1.7073572 -6.3211403 -0.13341817 12.502161
-1.3453641 -6.1789322 -0.24844134 11.342356
-0.58489877 -6.3536997 -0.29421824 10.875
-0.11896995 -6.0736647 -0.37306887 10.000031
0.15674347 -6.0940018 -0.29212397 10.21875
-1.8921968 -5.8129311 -0.12433654 12
0.30495274 -5.8375444 -0.031448465 13.505899
0.61503386 -5.9041619 -0.21568987 11.502369
0.96417952 -5.6876302 -0.10735705 12.649408
1.3526752 -5.6488056 -0.18543838 11.498047
-2.1419394 -5.3825426 -0.16778049 11.901997
0.6825242 -5.5511241 -0.015264921 14
1.09956 -5.4706268 -0.15910107 12.006633
1.3868083 -5.454927 -0.3170923 10.500063
1.8740134 -5.2453961 -0.30849457 10.556312
2.0791891 -5.2209597 -0.35837027 10.080608
2.4152675 -5.2212815 -0.17319353 12
-2.4089384 -4.9135885 -0.14074118 12
-2.1847768 -5.0448828 -0.18745032 11.608088
1.8693378 -4.9351807 -0.29399043 10.406486
2.1135426 -5.1594934 -0.32206035 10.428694
2.4880757 -4.9428582 -0.23616977 11.348867
-2.487278 -4.5196238 -0.14409161 11.745662
-2.2802131 -4.6533146 -0.18764751 11.211516
1.8821588 -4.7611055 -0.37834996 9
2.3989387 -4.7453542 -0.1269453 12.312489
2.5703163 -4.6804447 -0.21730022 11.335407
2.9976563 -4.5562887 -0.33009303 10.313478
3.3357649 -4.4529548 -0.22196153 11.491238
3.6505265 -4.4134655 -0.18499964 12
-2.8045473 -4.1233406 -0.0091550434 13.429418
-2.6983891 -4.2015591 -0.042526327 13.051219
3.0887477 -4.3607211 -0.24439588 11
3.5205603 -4.1864805 -0.18829094 11.834776
3.6621759 -4.3440466 -0.18083721 11.999722
-2.8201485 -3.6809258 -0.15732627 11.384506
-2.6866608 -3.8033805 -0.22525406 10.658405
3.8722878 -3.7787857 -0.1176925 12.524965
4.0867033 -3.9025536 -0.23590043 11.500368
-2.9646406 -3.3773675 -0.13044126 11.611206
-3.2341223 -2.9511471 -0.3668054 8.061944
-3.0723739 -2.9969826 -0.1489552 11.299746
0.18643001 -2.9820223 -0.34807515 6.8178787
0.54980683 -2.8515031 -0.33693093 6.34375
1.1960039 -2.8194802 -0.3665908 7
1.24327 -2.8064034 -0.35592705 7
7.8095179 -2.8926759 -0.054469202 14
-3.2781587 -2.5649111 -0.18596533 10.685161
-3.1542315 -2.68718 -0.19722629 10.312491
0.35413873 -2.6222332 -0.33550301 5.9991679
0.54633915 -2.6365175 -0.34194845 5.907311
1.0211912 -2.726274 -0.3409234 6.3620605
1.2533407 -2.7965536 -0.35702151 6.90625
7.9587655 -2.5709262 -0.12107158 13.369415
8.0693531 -2.4893775 -0.15461121 13.058192
8.6976223 -2.4106545 -0.20769104 13.03125
8.8688908 -2.4074564 -0.35973144 12
-3.3477449 -2.1631088 -0.20171729 10.473396
0.21339154 -2.052968 -0.36226299 3.0656309
0.64066905 -2.3572402 -0.31249779 6
0.91354358 -2.3137383 -0.32229185 5.9980469
8.6721735 -2.2393827 -0.10888382 13.730015
9.0338249 -2.331454 -0.37052581 12
-3.6450081 -1.7741016 -0.21983561 10.230964
-3.4913771 -1.8293107 -0.26135498 9.569025
0.28987706 -1.9743445 -0.35153872 2.9999759
0.48710868 -1.9148102 -0.34766993 2.9999998
0.96911782 -1.8211133 -0.36999965 3
8.3936157 -1.6155987 -0.15574205 13
8.6178455 -1.7446404 -0.12702499 13.497441
8.9082403 -1.7273271 -0.35687739 12
9.2480927 -1.6205956 -0.36163786 12
-4.0411592 -1.2623775 -0.3193334 9
-3.6975033 -1.3602349 -0.22987212 10.01946
-3.5485017 -1.5367329 -0.27428836 9.2505493
8.6029844 -1.503528 -0.15416804 13.265609
8.931324 -1.3020531 -0.08664228 13.999023
9.2644272 -1.5304234 -0.37900025 12
-4.0735288 -1.1837618 -0.3200025 9
-3.8651609 -1.0278485 -0.23848104 10.00456
8.7034206 -0.88049531 -0.17314823 12
8.9713097 -1.0366869 -0.17697588 12.5625
-4.0879598 -0.68480629 -0.22874705 10.293494
-3.930553 -0.61091244 -0.091444097 12.03829
-1.711272 -0.52218378 -0.28273726 3.9924753
-1.4774582 -0.47449106 -0.26266092 3.2235479
8.3228207 -0.40371054 -0.1654143 13
8.5038242 -0.52317286 -0.19800194 12.78125
8.8809824 -0.60719615 -0.25866434 12
-4.1477928 -0.25681764 -0.26915774 9.7596388
-3.9289045 -0.36861548 -0.31120616 9
-1.6049309 -0.25125039 -0.34752548 0.50065666
-1.5293705 -0.28770071 -0.30188119 1.9348574
8.3326473 -0.30955601 -0.16954166 13
8.6536751 -0.16082498 -0.29482108 12.125003
-4.4125414 0.13559338 -0.36384347 8.800209
-4.3306823 0.17352627 -0.25858104 10.072451
-1.6367996 0.34452325 -0.26558805 3.5646729
-1.472682 0.28748173 -0.2850315 2.2046354
8.2834377 0.21644896 -0.067188442 14
8.5827332 0.10429192 -0.32585809 12
-4.8897562 0.61959523 -0.016174853 13.499797
-4.5643234 0.51908302 -0.075830936 12.700672
-4.360528 0.45602247 -0.25094435 10
-1.6478686 0.50785136 -0.32257229 2.5627079
-1.5337589 0.56484437 -0.32474911 1.4945979
8.2115479 0.62916565 -0.13011816 13.083334
-4.9557676 0.98811442 -0.16644621 11.650653
7.9258184 1.1261027 -0.062811971 14
8.1302719 0.9111923 -0.18829829 12.75
-5.227181 1.5711665 -0.32735726 10.251282
-5.039156 1.2655506 -0.090095244 12.867945
7.7697916 1.5144429 -0.071031973 14
8.0313435 1.5449504 -0.25049308 11
-5.265244 1.8650383 -0.26876876 11.021873
-5.0604863 1.6583622 -0.09102089 12.705322
7.5743766 1.9103292 -0.058957007 14
7.7235465 1.7330201 -0.13048714 12.953125
-5.3404093 2.0788808 -0.20066997 11.768633
-4.9694967 2.1662424 -0.0904755 12.807074
-4.7375746 2.3686056 -0.21046737 11.259888
7.501152 2.3774157 -0.017519802 14.999998
7.6780872 2.1276054 -0.29057643 11.375
-4.8370757 2.4069457 -0.13578175 12
-4.5826416 2.5146806 -0.054782771 13.333291
-4.1265855 2.6360738 -0.079706118 12.874921
-3.7839646 2.6854992 -0.16427986 11.722071
-3.4600887 2.7568829 -0.23645122 10.573776
-2.0933135 2.7399361 -0.21848187 10
-1.8663228 2.7073648 -0.38594705 6.8104763
7.4775863 2.4254522 -0.02640174 14.782394
-3.7369027 2.8143978 -0.11110631 12.251223
-3.3763919 2.8667912 -0.1802884 11.305235
-3.0677238 2.9878316 -0.18541256 11.325029
-2.6028161 3.0900989 -0.17838946 11.268539
-2.2614369 3.0560224 -0.16078959 11.436192
-1.9011748 3.0604153 -0.24146266 10.002174
-1.3591249 2.8520575 -0.39934894 6
-1.0291126 3.1940043 -0.047781333 12.5
7.1291099 3.1432896 -0.03178294 14.125
7.272449 2.9866786 -0.14684944 12.875
-2.808207 3.2152925 -0.34555891 9
-2.4177918 3.3142238 -0.1126955 12.196973
-2.1200049 3.3303728 -0.30077359 9.4018202
-1.8613844 3.479954 -0.066826016 12.926551
-1.5240211 3.5825429 -0.17794088 11.072763
-1.0334349 3.216598 -0.048489738 12.998047
-0.74074233 3.4655397 -0.30699706 9
-0.28918347 3.3799231 -0.37528822 6
0.069930017 3.5915284 -0.12681185 11.75
7.0360398 3.4221053 -0.091806263 13.65625
-1.6584154 3.6362367 -0.39592874 8.0104189
-1.4094384 3.7031379 -0.10470801 12.387356
-1.050583 3.732168 -0.080639824 12.963985
-0.55555856 3.9716759 -0.35375157 9.0119534
-0.30518794 3.8124461 -0.028666202 13.529276
0.040773299 3.7180085 -0.16038939 11.500279
6.7832069 3.9817939 -0.011771945 15
6.816988 3.9372244 -0.019637562 15
-0.82583153 4.0186462 -0.26333892 9.9995117
-0.60498488 4.1153908 -0.21437897 11
-0.18819851 4.1730933 -0.15436691 12.08555
0.043199442 4.3252525 -0.37790033 9
6.7579918 4.0280261 -0.022109985 14.999992
-0.027709875 4.45825 -0.39237136 9
0.21454595 4.5174665 -0.060431529 13.273467
0.61584032 4.6427755 -0.20358033 11.639524
0.85671294 4.7540665 -0.18110329 12.000122
6.3545618 4.6954422 -0.072799064 14
6.4187288 4.5242162 -0.067063183 14
0.56424278 4.8181157 -0.086300261 13
0.92010057 4.9777269 -0.16225776 12.335603
1.5450032 5.1678114 -0.026690502 14
1.6249709 5.1925201 -0.017067309 14
6.1615953 5.0952406 -0.073693812 14
6.4831815 4.9138794 -0.30401629 11.5
1.1230252 5.2718296 -0.26027262 11.332449
1.362344 5.3665304 -0.17597067 12.33084
1.7523946 5.3228097 -0.071762383 13.675694
2.0293274 5.5086427 -0.19147623 12.424002
5.9856787 5.4472227 -0.069366597 14
6.0729742 5.4480591 -0.08912646 14
1.9231031 5.6692514 -0.24383791 12
2.221714 5.7146091 -0.014102913 14.898752
2.619596 5.914331 -0.03702347 14.446474
2.8089578 5.8597555 -0.020581858 15
5.8957653 5.8498273 -0.094047405 14
6.0151763 5.6307616 -0.083315492 13.99707
2.7102237 6.0575123 -0.24214312 12.146582
2.9740305 6.1362424 -0.14026304 13
3.4692616 6.1945262 -0.16592509 13
3.7406912 6.386549 -0.24928702 12.382467
4.1602135 6.2918968 -0.16169596 13.434112
4.4813061 6.3834152 -0.039433911 14
5.4636488 6.2918339 -0.18677087 13
5.8064818 6.0704312 -0.1044527 13.966778
3.8778343 6.5483084 -0.13516903 13.595806
4.0453835 6.5179238 -0.062367685 14.452275
4.6029315 6.4606586 -0.049403511 14.583986
4.8914447 6.510819 -0.077705324 14
5.4228897 6.7106953 -0.10822108 13.872802
5.7046289 6.6275845 -0.34611905 11.959961
5.5661626 6.9297743 -0.37059286 12
5.6043816 6.9166555 -0.35780036 12
-0.83708525 -6.4156361 0.069297314 15
-0.52867079 -6.4494534 0.02900834 14
-1.8120028 -6.0436587 0.077923007 14.99996
-1.244709 -6.3287868 0.070792645 15
-0.83876061 -6.3954859 0.074079901 15
-0.61787879 -6.3343678 0.057314746 14.685764
-0.10139614 -6.1321201 0.069009617 14.999965
0.070554756 -6.1036139 0.064760029 14.984371
-2.0047984 -5.7587605 0.075962692 15
-1.9670389 -5.7912731 0.073822007 14.999817
-1.486541 -5.9609175 0.080979519 14.999756
0.21209379 -5.7554388 0.012000671 14
