# .PCD v0.7 - Point Cloud Data file format
VERSION 0.7
FIELDS x y z intensity
SIZE 4 4 4 4
TYPE F F F F
COUNT 1 1 1 1
WIDTH 1236
HEIGHT 1
VIEWPOINT 0 0 0 1 0 0 0
POINTS 1236
DATA ascii
-3.682883 -7.4334126 -1.8288255 2
-3.2906446 -7.3087788 -1.8570688 1.3333334
-2.6673136 -7.3642654 -1.8590523 1
-1.4971366 -7.5879955 -1.8332387 1
-0.78266001 -7.6357269 -1.8175538 1
-0.070703022 -7.6681557 -1.8148975 1
0.31954432 -7.7129445 -1.8275945 1
0.6616292 -7.7299843 -1.8363476 1
-5.1628418 -6.6216679 -1.8543129 2
-4.2694392 -6.6472979 -1.878237 1
-3.9086394 -6.9014521 -1.8859876 1
-3.3987627 -7.1242223 -1.8753533 1
-2.8075626 -7.1309557 -1.817275 1
-4.9789324 -6.217083 -1.8574063 1.2599609
-4.5498052 -6.4444361 -1.8761201 1
-4.9131718 -5.9439983 -1.8323162 1
10.135504 -3.4113183 -1.9349018 4
10.274403 -3.1542654 -1.9452673 4
7.5250244 -2.5325947 -1.8764498 1
8.9170189 -2.8750753 -1.9861995 2
9.0326633 -2.4526849 -1.9886899 2
10.38516 -2.6314366 -1.9391745 4
7.6965055 -2.1457927 -1.8895576 1
7.8155651 -1.8301762 -1.9018687 1
9.0618944 -2.3841569 -1.9901575 2
10.406665 -2.0727806 -1.9198437 4
7.7963462 -1.7427332 -1.8894541 1
7.8237586 -1.6086693 -1.8887327 1
10.423529 -1.5369529 -1.9058893 4
14.338188 -1.4222517 -1.8299044 7
14.501408 -1.3456582 -1.8476765 7
16.369831 -1.444226 -1.8083156 8
7.8764496 -0.88673878 -1.8739294 1
10.439844 -0.82442176 -1.8941851 4
14.461722 -0.85348886 -1.8375089 7
16.37265 -0.8990941 -1.8035029 8
7.8784261 -0.27957898 -1.8635631 1
10.387982 -0.31112969 -1.8793021 4
14.398174 -0.24617714 -1.8268616 7
14.419024 -0.42872435 -1.8289635 7
16.363016 -0.28708899 -1.8012402 8
7.7909436 0.44021326 -1.8436478 1
7.8338823 0.19195525 -1.8516989 1
10.301363 0.32370555 -1.8632689 4
14.388132 0.32181841 -1.8252802 7
14.422091 0.19637148 -1.831725 7
16.363407 0.30097798 -1.801845 8
7.7040753 0.91801584 -1.8331404 1
10.179279 0.97729456 -1.8483375 4
10.232229 0.74690557 -1.8543901 4
14.348828 0.9123171 -1.8239124 7
16.334837 0.81126642 -1.8010979 8
7.5905933 1.4804173 -1.8272705 1
8.3199816 1.7570791 -1.8718226 2
10.049932 1.5637126 -1.8383766 4
14.281039 1.5163808 -1.8222151 7
16.264397 1.4988525 -1.8011451 8
7.4376116 2.1105127 -1.8272253 1
8.2025394 2.2555323 -1.8709639 2
9.9259853 2.1200044 -1.8349288 4
14.250251 2.1159453 -1.8291271 7
16.198967 2.0994012 -1.8019184 8
16.237518 2.1575599 -1.8043951 8
8.1277866 2.5197506 -1.871554 2
9.7927275 2.6976912 -1.8369218 4
14.233997 2.756609 -1.8426883 7
16.198406 2.7143717 -1.8115687 8
16.229939 2.6382689 -1.8126485 8
9.7034273 3.0643282 -1.8405707 4
14.210857 3.3039765 -1.8560112 7
14.159109 3.9083185 -1.8705338 7
16.673857 4.1352606 -1.8047411 8
14.121897 4.2580967 -1.8793616 7
16.710331 4.5147972 -1.8202509 8
16.648071 5.1100321 -1.833137 8
-5.4086666 -7.8159389 -1.2047274 7
-1.3061736 -7.8059759 -1.4067967 4
-0.8344425 -7.8253021 -1.4006405 4
-0.22281525 -7.8577838 -1.4266155 3.8653274
0.31789708 -7.8859439 -1.4738557 3.6666667
0.81346148 -7.8757105 -1.5290871 3.3557665
1.4864256 -7.9302025 -1.3973849 4.4713545
-5.4379487 -7.7959437 -1.2100394 7
-5.1067419 -7.4596639 -1.516562 4.8000002
-4.4562807 -7.5775685 -1.4481995 4.9388924
-3.8870354 -7.580368 -1.4017649 4.9280896
-3.2682266 -7.4708748 -1.4122372 4.4364538
-2.752537 -7.4381123 -1.4841239 3.6720653
-2.0251312 -7.4344201 -1.3286574 4.4468241
-1.4474127 -7.6716671 -1.4875748 3.3914964
-0.83749187 -7.5275688 -1.5646358 2.6602166
-0.28258318 -7.5656958 -1.4525641 3.4406748
0.71485049 -7.7235761 -1.339538 4.3743491
-5.2254462 -6.8651628 -1.4130495 5.0007105
-2.5579772 -7.110322 -1.5694847 2.54375
-2.0842037 -7.097373 -1.5295174 2.575913
-1.6620743 -7.0310535 -1.5444429 2.2282367
-0.82022959 -7.0299158 -1.6395278 1.2363281
-0.2834062 -7.0250263 -1.5854414 1.5631201
-5.162148 -6.2750678 -1.4419 4.2101088
-1.0680437 -6.1342449 -1.3872666 1.6214193
1.5636554 -6.2801399 -1.5148275 1
3.8164346 -6.3969359 -1.2071912 5
-5.0771551 -5.6994801 -1.5057697 3.1255584
-1.0252157 -5.98418 -1.4195633 1
0.54618907 -5.7338157 -1.299817 1.3880209
3.5632663 -5.4371147 -1.3577187 2.3841147
3.7138505 -5.41503 -1.3580222 2.5
24.530663 -5.4493561 -1.3189256 11
-5.0298958 -5.1169138 -1.4189267 3.0974393
-4.6191721 -4.9343667 -1.5169308 1.639323
3.5539908 -5.1853495 -1.3779786 1.7671875
3.8023183 -5.1734161 -1.3544331 2.2587304
4.2959471 -4.8566694 -1.3595936 2.3333335
15.24823 -5.1360989 -1.7627754 8
24.55213 -5.3442345 -1.316309 11
24.839539 -5.0514765 -1.3305793 11
-4.9821382 -4.4660578 -1.3351169 3
-4.4225044 -4.437068 -1.4029899 1.6097047
3.918936 -4.4956837 -1.3622403 1.218564
4.3404312 -4.5017562 -1.2882671 2.5
12.533753 -4.3630285 -1.6651111 7
12.975296 -4.4481254 -1.223376 9
13.400173 -4.4313002 -1.5275378 8
15.383358 -4.5399451 -1.7569666 8
24.987434 -4.7787752 -1.3410394 11
-4.8829908 -3.681778 -1.320725 2.046875
-4.3409748 -3.9847407 -1.3122568 1.6335938
-4.1867328 -3.8525834 -1.3225545 1
4.1049252 -4.0090623 -1.3087276 1.202474
4.2752657 -3.9913452 -1.2951789 1.5833334
12.398808 -3.855998 -1.585767 7.1643233
13.06015 -3.861505 -1.2138 9
13.244679 -3.6013026 -1.2273096 9
14.11952 -3.6986117 -1.5566957 8.0947266
14.780631 -3.6269445 -1.3797462 9
15.426632 -3.7412107 -1.6449757 8.3235683
16.020031 -3.7427378 -1.321393 9.625
16.438389 -3.7497597 -1.4080753 9.4597664
17.04018 -3.7905307 -1.2936645 10
24.514309 -3.7327142 -1.2986178 11
24.657976 -3.6403909 -1.3081281 11
-4.8346624 -3.4436355 -1.3437873 1.4375
-4.4964433 -3.3462675 -1.2490699 1.739323
-3.8981471 -3.1004772 -1.2082566 0
12.585722 -3.5224438 -1.6374195 7
12.681043 -3.2559166 -1.640449 7.0019531
13.521419 -3.5341585 -1.2506917 9
14.292951 -3.3352418 -1.5690632 8.0886717
14.541769 -3.2893825 -1.5267513 8.3368063
16.089014 -3.2421117 -1.5024574 9
16.221989 -3.390063 -1.5212275 9
24.560949 -3.0093904 -1.2970467 11
24.657011 -3.3877792 -1.3038144 11
-4.5013418 -2.662436 -1.207181 1
4.1063366 -2.8729274 -1.2034659 0
12.878035 -2.6914902 -1.6503115 7
14.319129 -2.6805797 -1.5798463 8
14.801214 -2.4613516 -1.3577241 9
15.558084 -2.5215728 -1.4375322 9
15.856617 -2.7122436 -1.4693886 9
24.573475 -2.8847902 -1.2954283 11
24.666073 -2.6671834 -1.3003169 11
-5.0127249 -2.152441 -1.2059861 2
-4.4551187 -2.2254682 -1.2096033 0
4.6198778 -1.9509165 -1.2045913 0
13.017841 -2.0756035 -1.6543531 7
14.331843 -2.2913051 -1.5734941 8
14.682888 -2.1209431 -1.5695095 8.1564541
15.116259 -2.0378273 -1.558413 8.375
16.08297 -2.3440287 -1.4866866 9
16.633057 -2.0954077 -1.5398293 9
24.71022 -1.8468692 -1.2992671 11
13.186846 -1.7818422 -1.6729957 7
13.343153 -1.6193855 -1.6906227 7
13.90094 -1.385617 -1.7664289 7
15.237391 -1.5399938 -1.6635555 8.0289059
15.982696 -1.5675015 -1.7614149 8
16.73098 -1.7697484 -1.5676967 8.9375
24.514414 -1.4967767 -1.2864331 11
24.63306 -1.3015907 -1.2930696 11
14.987402 -1.1280311 -1.3618176 9
15.153427 -1.12995 -1.4973752 8.5752316
16.170832 -1.1049341 -1.7793146 8
16.304119 -0.83795941 -1.7940798 8
24.548929 -0.86179209 -1.2873089 11
24.63335 -1.0593133 -1.2926524 11
16.349171 -0.27381289 -1.7973924 8
24.55505 -0.50699991 -1.2874186 11
24.663979 -0.36352801 -1.2939866 11
16.344612 0.3282935 -1.7971653 8
16.314838 0.96014011 -1.7975652 8
24.462543 1.0904471 -1.2846889 11
24.75754 0.89934415 -1.3033085 11
16.264521 1.5280831 -1.7971214 8
24.482948 1.5180283 -1.287776 11
-4.9916573 2.2227945 -1.2165161 2
4.993701 2.2881718 -1.209497 2
16.212778 2.0557404 -1.794834 8
24.462009 2.092905 -1.2896905 11
24.623943 1.909544 -1.299103 11
24.925621 2.4619818 -1.3195586 11
3.8135657 3.2871695 -1.2119741 0
4.4575405 3.2087491 -1.2106984 2
16.661335 4.115016 -1.7960401 8
17.637621 4.7963996 -1.3632871 10
17.612934 4.8750696 -1.3723865 10
22.700331 6.4194565 -1.236851 11
22.683056 6.6701603 -1.240139 11
-5.4226251 -7.8322124 -1.1987884 7
-5.0887003 -7.8214025 -1.1793807 7
-4.4789267 -7.8594809 -1.1373247 7
-3.8184662 -7.8601513 -1.0057778 7.5830078
-3.3078613 -7.8724122 -0.98364842 7.5062499
-2.6114917 -7.8622341 -1.0698075 7
-2.053966 -7.9205012 -0.89170468 7.8804688
-1.4619472 -7.9496326 -0.95356882 7.5104165
-0.96931875 -7.9350677 -0.95409501 7.4444447
-0.27116013 -7.9756303 -0.91424733 7.7131195
0.326267 -8.0506725 -0.98066676 7.2539949
0.88879806 -8.0873499 -0.96363473 7.3758173
1.4422483 -8.1314373 -0.87900543 8.0167408
2.1618795 -8.1770363 -0.62978697 10
2.600888 -8.2061062 -0.643996 10
3.5324996 -8.089097 -0.93603826 8
3.8161588 -7.8351183 -0.92170107 8
-5.4157829 -7.490099 -1.1514022 7.0019531
-5.1991282 -7.5842314 -0.99150288 8
-4.4778652 -7.7148175 -0.9555403 8
-3.8324487 -7.756835 -0.82703888 8.7074223
-3.2230005 -7.6276665 -0.87990451 8.1362495
-2.712687 -7.6364565 -0.94390404 7.5013657
-2.1023006 -7.5877414 -1.0413249 6.7113566
-1.4294949 -7.6000972 -1.1156809 5.9910717
-0.85260808 -7.5528126 -1.0923492 6.041667
-0.35826182 -7.6351442 -1.0612836 6.3128719
0.77458239 -7.7279186 -1.1171949 6
3.4856884 -7.6284122 -0.78934574 8.703125
3.7313623 -7.5569816 -0.99028254 7.3818731
4.2981024 -7.392458 -0.78257442 8.8999996
-5.4048128 -7.0519705 -1.1154869 7
-5.3623924 -6.8909559 -1.0178249 7.5021167
-1.4132004 -7.0858994 -1.1550508 5.1278648
-1.0066168 -7.1155291 -1.1652769 5
2.1789165 -6.9253931 -1.1750474 5
3.90397 -6.8618922 -0.92417073 7.5827379
4.3575163 -6.8208208 -0.72924703 9.0062504
-5.2566094 -6.3001657 -0.9567039 7.5663118
0.56999785 -6.0148673 -0.99629676 5
3.8073962 -6.3272152 -1.0589082 6.0149803
4.4137087 -6.2827864 -0.76865584 8.5
23.965202 -6.1106277 -0.86531484 12
24.00519 -6.0941901 -0.86616832 12
-5.2230401 -5.706666 -0.92594218 7.3732753
0.57339597 -5.6406784 -1.0633361 3.6040368
0.70625317 -5.5351858 -0.75096011 6.5292969
1.6320574 -5.4656124 -1.0406653 3.826823
3.5976958 -5.6482205 -0.94472134 6
3.7311625 -5.6670775 -0.96266621 6.0048075
4.4496665 -5.6776228 -0.79063892 7.8888888
23.973841 -5.6622291 -0.85734046 12
24.009476 -5.4172106 -0.86024642 12
-5.1446953 -5.0695748 -0.91841435 6.9236588
0.59699142 -4.9896069 -1.1536257 1.0390625
0.6949743 -4.9884357 -0.84661067 4.7214165
1.5938478 -5.3863196 -1.0963148 3
3.9144669 -5.2076745 -0.9189378 5.9921875
4.4260111 -5.0550318 -0.82316041 7.0647888
23.988689 -5.0787725 -0.85301477 12
24.080921 -5.067235 -0.85681176 12
-4.9444799 -4.5861964 -0.92200732 6.4997396
-4.5430079 -4.4088283 -0.77570009 7.3089843
0.58996761 -4.6740999 -1.1311059 0
0.72005117 -4.4868808 -0.86681032 3.4588127
1.9933362 -4.4963398 -0.73320597 5.75
3.9933133 -4.5320492 -0.88908839 5.9230528
4.4271212 -4.4812489 -0.80947602 6.8400359
13.16153 -4.5597658 -0.99249947 10
24.291512 -4.7150669 -0.86296475 12
24.742361 -4.6866369 -0.88181496 12
-4.4319177 -3.8400095 -0.78352958 6.713542
-4.1073294 -3.6274476 -1.1775211 2
0.59487033 -3.6990378 -0.87416774 1
0.7052691 -3.7292812 -0.80300581 2.2569261
1.6130764 -3.7432508 -0.64371002 5.2214193
2.0143843 -3.7735629 -0.67882633 5.1525269
3.9807079 -3.9886565 -1.0253659 3.8243489
4.3474274 -4.0178065 -0.93264949 5.2830362
13.377726 -3.7708941 -0.99061823 10
14.673792 -3.6033602 -1.0966324 10
15.398946 -3.6498001 -1.1547639 10
15.939834 -3.847806 -0.70892239 11.652779
24.29361 -3.7000582 -0.85656744 12
-4.3893924 -3.3080685 -0.95870751 4.45049
-4.124711 -3.3940864 -1.102623 2.5559897
0.57533371 -3.3720527 -0.75588846 2
0.85491848 -3.3883629 -0.78356135 1.631901
1.5771296 -3.3840652 -0.75464213 2.7999129
2.0764375 -3.4537096 -0.83234286 2.5472775
4.1266441 -3.2477264 -0.96349466 3.9241071
13.616865 -3.558567 -1.0055599 10
14.136259 -3.5578992 -1.04845 10
14.611778 -3.5869853 -1.0890286 10
24.268894 -3.275712 -0.85335124 12
-4.8905506 -2.5525255 -0.91213143 5
-4.4439707 -2.6549251 -1.0172834 3.204293
4.1452494 -2.7257695 -0.93711191 3.3504972
4.2588291 -2.5126181 -1.0191338 2.6666667
14.922147 -2.5157311 -1.0966702 10
24.467125 -2.7776189 -0.85963249 12
24.736088 -2.6111917 -0.87049437 12
-4.8913298 -2.0151491 -0.98295176 3.9409723
-4.4982367 -2.1001391 -0.97458899 3.1176112
-4.1700344 -2.0018384 -0.67298603 6
4.14291 -2.1376376 -0.84951067 3.6000001
4.4570351 -2.000989 -0.98737013 2.6469669
4.8812461 -1.8013718 -1.1380529 2
14.959133 -2.383106 -1.1007242 10
24.586918 -1.8427327 -0.86200893 12
24.603432 -1.8688563 -0.86563027 12
-4.8083849 -1.525053 -0.80560815 5.2250004
-4.7824082 -1.4498298 -0.7770462 5.5051513
-3.7800789 -1.394784 -0.90768123 1.5902344
4.638526 -1.7512532 -0.94033933 3.3455634
4.8997903 -1.7599795 -1.0281535 3.1743829
24.317677 -1.5126545 -0.849751 12
-5.0284715 -0.7996546 -0.92963016 4.0848861
-4.730546 -0.98597038 -0.76461434 5.3085938
-3.8980908 -0.84458023 -0.8665424 2.0744421
-3.4306417 -0.911376 -0.80834091 1.6852679
24.251339 -0.89719647 -0.84622276 12
-5.0661292 -0.35826415 -0.93591774 3.9349432
-4.4919157 -0.19287297 -0.87365556 3.2346168
-4.0338368 -0.11336677 -0.82351732 2.7530382
24.529697 -0.48492366 -0.85807735 12
24.624456 -0.35922161 -0.86509144 12
-5.0020356 0.34953958 -0.86963636 4.5401006
-4.3511715 0.20125945 -0.89901632 2.7374306
-4.1049404 0.096007898 -0.86622012 2.4800782
-4.9932733 0.90316403 -0.8731066 4.674006
24.253181 1.0515234 -0.84862328 12
24.920313 0.73412907 -0.87979454 12
-4.9344196 1.5168617 -0.94385147 4.0999999
-4.7329817 1.5831765 -0.7817952 5.4420576
-3.0381942 1.7192659 -0.78222692 1.921875
-2.8630774 1.7293465 -0.71116483 2.375
-2.1969783 1.7776995 -0.67306924 1
4.7193279 1.7605767 -0.82695127 4.916667
4.9698772 1.7379587 -0.95972514 4
24.116829 1.5218296 -0.84438384 12
-4.9158349 2.0546112 -1.0159472 3.6879654
-3.7845573 1.9411862 -0.84369367 3.1483107
-3.2775273 2.0232415 -0.80831409 2.4309301
-2.7811117 2.0567772 -0.77271593 1.9874442
-2.1906223 1.9957676 -0.71023196 0.98059893
-1.5260413 2.3379953 -0.6623522 1
4.7933583 1.9674134 -0.78708363 5.6458335
4.8686399 2.0624566 -0.96952474 3.956064
24.2701 2.0559645 -0.85321403 12
-4.8143926 2.4860606 -0.89648163 5
-4.5832253 2.5881143 -0.81434095 5.6388893
-3.2318692 2.4514604 -0.84410006 2.5091147
-2.0008297 2.6596828 -0.79209816 0.4733631
-1.3207417 2.7512712 -0.6515547 2.2765627
-1.1665601 2.7751384 -0.65496135 2
4.6102004 2.8951175 -0.98730379 3.9365234
4.8674088 2.7782865 -0.95708692 4.5001397
-4.4942989 3.4606874 -0.62038147 8
-1.8530288 3.5448446 -0.71283996 4.25
-1.3579726 3.2596574 -0.8027252 1.1595052
-0.98916519 3.3521497 -0.74369889 1.9953126
-0.24138325 3.447242 -0.76635569 2
0.29104939 3.4116764 -0.75730371 2
0.99361092 3.4978573 -0.79289186 1.9995117
1.5037236 3.5257678 -0.76622969 2.9861407
2.1524043 3.5105886 -0.82955348 2.6272788
2.701509 3.4573331 -0.86529899 2.7218747
3.3126774 3.4278789 -0.91165233 3.2264795
3.8428617 3.3904519 -0.93981695 3.7983947
4.3457766 3.1443362 -0.93300831 4.4901042
-4.4167566 3.9252453 -0.65401828 8
-4.0527854 4.0095806 -0.62433946 8
-2.042428 3.7962334 -0.88930124 2.6907578
-1.4748714 3.8226457 -0.82268488 2.9258852
-0.95857066 3.7917967 -0.80284476 2.670897
-0.28651398 3.7371159 -0.81105292 2
0.31472343 3.7086625 -0.80365413 2
0.90832222 3.6518807 -0.81295037 2
1.5530069 3.6532187 -0.8433128 2.0460379
2.0987566 3.6564946 -0.84236652 2.7652531
2.6460881 3.6351056 -0.85602081 2.9537761
3.0232782 3.6186001 -0.86023033 3.5
2.2211065 -8.4030285 -0.33025292 12
2.7098544 -8.422657 -0.33679169 12
3.3175898 -8.4601345 -0.35086975 12
3.8126938 -8.4743595 -0.36292258 12
-5.4371214 -7.8407822 -0.44583696 11.5
-5.1453304 -7.8712635 -0.40707535 11.75
-4.485075 -7.9310389 -0.35876608 12
-3.9197741 -7.9489255 -0.32273963 12.156809
-3.2788005 -7.8108702 -0.31903738 12
-2.6149201 -7.9102421 -0.30631143 12.03125
-2.0402198 -7.9725113 -0.28948611 12.256575
-1.4800711 -7.992053 -0.3140949 12.051976
-0.86940324 -8.0417461 -0.31891614 11.978269
-0.3079074 -8.0662155 -0.33167854 11.876803
0.31428066 -8.1209888 -0.35057902 11.75
0.88283092 -8.1680126 -0.32315761 11.979328
1.5080743 -8.2258987 -0.15955479 13.231539
2.1635513 -8.2919254 -0.24990726 12.533726
2.7047451 -8.1329012 -0.11402108 13.514788
3.39694 -8.1012325 -0.1172404 13.555555
3.9684706 -8.0329323 -0.20986445 13
4.3208494 -7.9481516 -0.2585482 12.666667
-5.4632092 -7.5578728 -0.39893875 11.75
-5.1843939 -7.5411863 -0.25226653 12.582312
-4.4145002 -7.6177816 -0.14839543 13.332962
-3.9046097 -7.6837015 -0.1503852 13.284319
-3.3660071 -7.602006 -0.099645481 13.685715
-2.6723309 -7.6578798 -0.36883318 11.682129
-2.3702223 -7.6815596 -0.32424992 11.994792
4.0285788 -7.5979233 -0.17012697 13
4.362206 -7.498147 -0.21869516 12.827567
-5.4419899 -6.8844433 -0.34000504 12
-5.2865672 -6.8821354 -0.126885 13.5
4.1726718 -7.1853724 -0.16122608 13
4.3836365 -6.8323383 -0.31241614 12
-5.4056396 -6.2846313 -0.3109954 12
-5.2844639 -6.2470932 -0.25041509 12.535528
4.4110594 -6.2577281 -0.3327989 11.650141
-5.4035425 -5.9430747 -0.29168034 12
-5.326159 -5.7162933 -0.20724531 12.944895
0.80231094 -5.4580622 -0.58724892 8
4.4353428 -5.7832661 -0.22497195 12.396112
-5.2339048 -5.1952596 -0.26170698 12.181372
0.8860209 -5.0604515 -0.54679942 8.083334
4.4740748 -5.0206375 -0.25712505 12.062826
13.884163 -4.8493996 -0.52271485 12
14.76247 -4.8213706 -0.56309223 12
-4.9733334 -4.3988142 -0.14675815 13.300386
-4.6499667 -4.3589745 -0.15015811 13.312724
0.93921697 -4.737287 -0.51853216 8
1.7464322 -4.3603954 -0.50429004 8
2.1088591 -4.4545813 -0.53559625 8
4.1123171 -4.5407376 -0.44156384 9.7119141
4.5108976 -4.4335017 -0.34493762 11.02758
13.769152 -4.4299107 -0.51399076 12
13.892127 -4.4423494 -0.51715755 12
14.849523 -4.4473915 -0.56199145 12
15.012856 -4.2390966 -0.57131809 12
-5.003366 -3.9921215 -0.37839949 10.894402
-4.6068149 -3.8865495 -0.4080838 10.313467
0.96567607 -3.8736825 -0.52115244 7
1.419157 -3.8574567 -0.51817131 7.1822267
1.8611196 -3.8213186 -0.59866345 6
4.1699734 -3.6422915 -0.58757222 8
4.4396863 -3.9064503 -0.2217395 12.134398
12.56504 -3.8729765 -0.29283321 13
14.081858 -3.8944683 -0.51249874 12.025
14.723339 -3.7631316 -0.43562227 12.436329
15.28895 -3.7416959 -0.41028956 12.614453
15.875698 -3.7527485 -0.39501244 12.747396
16.585781 -3.7532477 -0.34814137 13
16.864353 -3.7978234 -0.36010516 13
-5.0373106 -3.1167934 -0.15724477 13.148529
-4.4776673 -3.2343647 -0.24451399 11.789853
0.76965153 -3.5357628 -0.58775473 5
4.1940608 -3.4330268 -0.43816531 9.578125
4.2749777 -3.3415875 -0.35451865 10.432236
-5.0528126 -2.7551594 -0.32953036 11.088503
-4.557004 -2.778688 -0.337549 10.638683
4.0503311 -2.5551887 -0.099380843 13.160715
4.3430977 -2.7974362 -0.42258561 9.4974394
14.984954 -2.4938169 -0.19312602 13.518229
15.067894 -2.4849234 -0.46462327 12.347656
-4.9698811 -2.0474832 -0.28180227 11.375281
-4.5732002 -2.1846218 -0.20584944 12.352068
-4.1557193 -1.9679784 -0.0075747836 15
4.1336045 -2.0949931 -0.16426995 12.322676
4.5383368 -2.0067372 -0.30230016 10.739595
4.9056354 -1.8394527 -0.26596659 11.372726
14.921685 -2.3924584 -0.29402584 13
15.116475 -2.3742006 -0.33111066 12.984375
-5.0058432 -1.4756031 -0.20251434 12.443846
4.7117152 -1.7958167 -0.35606092 10
4.8871503 -1.7748374 -0.30076796 10.771702
-5.1055288 -0.91060376 -0.18536578 12.626132
-5.2311845 -0.27164477 -0.19949864 12.502722
-5.199553 0.31848741 -0.21472089 12.330638
-5.1534982 0.90095609 -0.20267497 12.480693
-5.1018233 1.3989007 -0.16649213 12.914419
-2.2076898 1.7964923 -0.55636519 2.96875
-1.7325788 1.7718382 -0.5638963 1.5078125
4.7901897 1.7914348 -0.4658252 9
5.0946064 1.7419233 -0.27042812 11.326973
5.4271708 1.7623576 -0.21717548 12
-4.9873462 2.1382511 -0.29150513 11.203516
-4.7783031 2.3113444 -0.042900961 14
-3.12181 1.891557 -0.57951438 5.3610029
-2.6921048 2.0277653 -0.47782397 6.2236328
-2.0339699 1.9456682 -0.51010549 4.1232233
-1.7437853 1.9941876 -0.55366856 2.7096355
4.7966013 2.3236938 -0.03980552 13.953125
4.918591 2.0478451 -0.09090922 13.6799
6.3867893 2.0696638 -0.13897428 13
-4.9385614 2.5631547 -0.2802974 11.419457
-4.628911 2.7968214 -0.2988511 11.06398
-3.1416192 2.6099598 -0.44673172 8
-1.936626 2.7479277 -0.44250703 6.800456
-1.5303428 2.6840014 -0.53499901 4.4257812
4.6242075 2.9225807 -0.2804988 11.339931
4.9876003 2.7258546 -0.26482034 11.677714
-4.5765505 3.291286 -0.24860932 11.864557
-2.0336313 3.0337744 -0.47188628 7
-1.2669282 3.5861626 -0.49721155 6.984375
-0.84110045 3.5856678 -0.52765524 6.2000003
-0.29148433 3.5592821 -0.5016883 6.3572922
0.31352377 3.5192466 -0.48697153 6.5
0.96051562 3.505379 -0.41066599 7.8701468
1.5137318 3.5110626 -0.34598401 9.0675964
2.0692077 3.5388162 -0.30676514 10.071212
2.7027283 3.5451272 -0.30236846 10.189068
3.2429185 3.5014105 -0.16250741 12.491945
3.9577255 3.4931781 -0.18183172 12.612575
4.3429213 3.2349193 -0.15906602 12.983505
5.0340934 3.0823767 -0.32583117 11.147136
-4.534049 3.8585968 -0.11155172 13.772537
-3.9967914 4.0864811 -0.14968564 13.11113
-3.2967644 4.0758395 -0.18581752 12.692466
-2.6054831 3.9263637 -0.12296995 13.316393
-2.0873799 3.942518 -0.34017247 9.9752607
-1.3782047 3.7264175 -0.40041667 8.6240997
-0.90410584 3.8506598 -0.12821567 12.844719
-0.29675093 3.7855923 -0.27463615 10.215507
0.31760031 3.7958245 -0.17761758 11.683855
0.89707088 3.7791209 -0.19067235 11.575587
1.5299311 3.7069385 -0.11140408 13.146045
2.0760593 3.6767471 -0.34993097 9.4698658
2.7010794 3.6790164 -0.32453245 9.9454613
3.2577076 3.662262 -0.26863414 10.786148
3.6877985 3.6477599 -0.34587198 10.519531
-4.6342373 4.2197223 -0.45158005 10.25
21.497952 6.4249578 -0.37662786 13.333984
21.735977 6.2774801 -0.36116868 13.389975
21.584522 6.6264105 -0.13445392 14
21.701288 6.8911142 -0.51111227 13
-5.4049606 -7.6660686 0.0068336846 15
-5.2712154 -7.6225615 0.0110378 15
4.4697461 -6.2552996 0.0056548435 15
-5.3313675 -5.5700827 0.0045263795 15
4.4938612 -5.8959551 0.012472112 15
-5.3007402 -5.3071361 0.0027051263 15
-4.8232455 -4.3334193 0.0022549091 15
-4.5730848 -4.3520756 0.0020216736 15
4.4490128 -4.4834633 0.0054979096 15
-4.9287734 -4.1150107 0.0024434626 15
-4.7341242 -3.9351635 0.0038017121 15
4.5014014 -4.0394354 0.002539671 15
12.38921 -3.8574326 0.01515386 15
-5.0651197 -3.2374523 0.0048355474 15
-5.0848651 -2.9059477 0.00157421 15
-4.6256895 -2.5306559 0.0032449809 15
3.7174265 -2.5180898 0.0046433876 15
-4.857255 -2.1536889 0.0010283896 15
-4.5382175 -2.1201591 0.006210519 15
-4.1576157 -1.9904529 0.0020233667 15
4.1231847 -1.9449307 0.0015130161 15
4.7286744 -1.9851408 0.004029993 15
4.914506 -1.8180529 0.0016895117 15
-5.0544987 -1.475261 0.002647541 15
-5.1054735 -0.97398937 0.0029496984 15
-5.2693801 -0.19804215 0.0020327666 15
-5.239141 0.30158406 0.0028194515 15
-5.1910629 0.86350781 0.0021434231 15
-5.1649709 1.2567179 0.00064655393 15
4.9857683 1.7875378 0.0013802052 15
4.9569654 1.8375616 0.0034641407 15
5.0522861 2.9876332 0.0028097853 15
-4.6127748 3.5770562 0.0081242695 15
3.1093359 3.3637266 0.0039808517 15
3.8703713 3.5039377 0.0054594204 15
4.2364101 3.1760001 0.0029338168 15
5.0343537 3.0222206 0.0019126403 15
-4.5508008 3.8291538 0.0042760991 15
-4.1655049 4.1064796 0.0080296593 15
-3.2155561 4.0779457 0.0040095416 15
-2.5561028 3.8041515 0.0016652232 15
-0.9075703 3.8786659 0.0032835016 15
1.4888351 3.7035184 0.0036692522 15
21.467291 6.5530739 0.013976758 15
21.753073 6.5112057 0.013083643 15
-2.8290539 -7.6139002 -1.7863307 2
-1.3840022 -7.6638641 -1.7754679 1.5
-1.1556542 -7.6881104 -1.7137334 1.9348959
-0.76616013 -7.7652779 -1.710835 2
-0.058893882 -7.8215399 -1.7144562 2
-5.2952976 -7.5439725 -1.6631812 4
-3.7739081 -7.4186482 -1.8353214 2
-3.2258096 -7.3999329 -1.8104033 1.75
-3.0993114 -7.3155966 -1.8047991 1.5885417
-2.7195306 -7.259697 -1.7699215 1.5
-2.1062846 -7.2701325 -1.6897426 1.75
-0.90783072 -7.373383 -1.6244866 2
-0.71404576 -7.5485315 -1.6638507 2
-3.7080946 -7.1174183 -1.9085314 1
-3.493613 -7.0706964 -1.8722225 1
-2.8706543 -7.1149755 -1.8096912 1.0703125
-2.4414825 -7.0437698 -1.6981596 1.5
-2.0626411 -7.1243358 -1.7408693 1.1059028
-1.6286728 -6.9943271 -1.6731217 1.171875
-0.91035736 -7.0353384 -1.6729579 1
-0.61955428 -7.0152273 -1.6596444 1
-0.24327016 -7.0236835 -1.6555252 1
-5.1566963 -6.6720667 -1.86264 2
-4.4457502 -6.5874128 -1.8916595 1
-4.2456331 -6.6008902 -1.865211 1
-5.0024428 -6.1410575 -1.8122041 1.5078125
-4.9629025 -5.7305994 -1.7311389 1.5045574
-5.0170259 -5.4132323 -1.6187146 2
12.503568 -4.5019331 -1.6674867 7
12.512652 -4.1148443 -1.6513562 7
12.186954 -3.8973005 -1.6018093 7
12.554588 -3.612489 -1.6366025 7
12.673137 -3.3401289 -1.6456984 7
14.342525 -3.3088908 -1.6012201 8
12.690531 -3.1033545 -1.637013 7
12.824871 -2.8336465 -1.645697 7
14.427231 -3.0704217 -1.6063669 8
7.4885225 -2.6093979 -1.8739519 1
7.7491593 -2.1212573 -1.9016874 1
12.956926 -2.1473112 -1.647198 7
13.025222 -1.9682269 -1.6535096 7
15.036004 -1.9234568 -1.651983 8
15.238935 -1.6299394 -1.6728234 8
13.465067 -1.3810673 -1.7040999 7
15.245564 -1.5687478 -1.675396 8
15.189669 -1.0729299 -1.6612608 8
15.258197 -1.1498489 -1.6713166 8
7.9145103 -0.58973521 -1.877912 1
8.3055668 1.8264387 -1.8717091 2
7.3439941 2.3713298 -1.821859 1
8.2236662 2.1718941 -1.8708253 2
7.3484793 2.424129 -1.8289802 1
8.1451511 2.4178505 -1.8641146 2
16.22855 2.7588725 -1.8122691 8
9.6762314 3.1215782 -1.8390005 4
16.210464 2.9113288 -1.8168795 8
14.072769 4.4889884 -1.8797138 7
16.790878 4.7334328 -1.8361423 8
-5.4316087 -7.7968979 -1.2044809 7
-3.909663 -7.6357975 -1.4119768 5
-3.1748767 -7.6743484 -1.2069168 6
-2.7836895 -7.7219405 -1.4618102 4
-1.8398813 -7.7659221 -1.3021175 5
-1.4153762 -7.6874266 -1.3899778 4
-0.45906734 -7.6121378 -1.2421682 5
-0.1147303 -7.8316708 -1.3302683 4.5429688
0.6525507 -7.9365063 -1.3006885 5
-5.2526293 -7.4575071 -1.4261134 5.5
-5.0027075 -7.5492587 -1.3270826 6
-3.7989254 -7.5274887 -1.3629658 5.046875
-3.2672586 -7.535255 -1.4612517 4.0625
-3.0138402 -7.2343521 -1.321882 4.653646
-2.7193327 -7.4041758 -1.3480105 4.5013022
-2.1709583 -7.2632265 -1.3046746 4.4179688
-1.8222989 -7.2904921 -1.2636342 4.6816406
-0.88199723 -7.4868851 -1.2272494 5
-0.47912261 -7.5841503 -1.2378829 5
-0.21303333 -7.4553137 -1.2123545 5
-2.4849627 -7.1347866 -1.4288402 3.5
-2.0705199 -7.0714688 -1.4313774 3.25
-1.8272552 -7.1416845 -1.3443809 3.9023438
-0.52106869 -7.111546 -1.5545681 2
3.7270837 -6.443346 -1.2076079 5
-1.0869944 -6.1257296 -1.3949604 1.546875
3.8589091 -6.3785257 -1.2098808 5
-5.1094532 -5.403264 -1.4210141 3.4375
24.55611 -5.5004721 -1.3190894 11
-5.1226521 -5.1860003 -1.2962514 4
-4.4411349 -4.9774446 -1.5665114 1.046875
-4.3939562 -4.9186058 -1.5544034 1
3.9361544 -5.0296817 -1.3361732 2.3470054
4.1974206 -4.8786297 -1.3329387 2.4726562
-5.0325823 -4.5091019 -1.3486509 3
-4.5008745 -4.5688839 -1.4507712 1.5
-4.3730373 -4.5497761 -1.4821835 1
3.8415279 -4.5693855 -1.3335338 1.5
4.3077817 -4.6803198 -1.31225 2.5019531
12.951284 -4.6330209 -1.2271457 9
-4.9369202 -4.20926 -1.2896736 3
-4.4072413 -4.3395739 -1.2243533 3
-4.3568082 -4.2845168 -1.2921494 2.2667825
4.1477041 -4.0633907 -1.3261256 1.1875
12.920873 -4.1130242 -1.2081788 9
14.106505 -4.0012808 -1.5911961 8
-4.2489462 -3.9264688 -1.352134 1
4.2237511 -3.8944888 -1.330598 1
12.154497 -3.7533426 -1.588698 7
12.472666 -3.8351898 -1.3945178 8
13.108191 -3.6960444 -1.2137979 9
13.927898 -3.627574 -1.5586398 8
14.11125 -3.9752851 -1.5900676 8
24.588818 -3.6768439 -1.3025085 11
-4.8073392 -3.5015147 -1.3935935 1
-4.777915 -3.383549 -1.3680246 1
4.1476703 -3.5775132 -1.2054551 2
13.257309 -3.5695984 -1.2252305 9
13.928709 -3.5936484 -1.5559709 8
14.339003 -3.4020488 -1.4977893 8.375
16.197403 -3.2777967 -1.5140631 9
24.66589 -3.289813 -1.3082335 11
4.1092463 -2.8716545 -1.2047589 0
24.596552 -3.0273292 -1.3030703 11
-4.3563318 -2.4207082 -1.2099056 0
14.258904 -2.6736817 -1.5745916 8
14.783224 -2.4469118 -1.358649 9
14.825578 -2.5844667 -1.3620989 9
24.762917 -2.5810986 -1.3056018 11
24.888117 -2.5661006 -1.3177035 11
-4.9967637 -2.1369152 -1.2074524 2
-4.5341191 -2.1063609 -1.2111378 0
4.5992851 -2.0168459 -1.2052376 0
14.291595 -2.368969 -1.5705501 8
14.489601 -2.111845 -1.5892754 8
14.949957 -2.3661211 -1.373318 9
16.606182 -2.2151248 -1.537751 9
16.813866 -2.105588 -1.5615106 9
4.6384134 -1.9219348 -1.2062042 0
24.612614 -1.7391436 -1.2930324 11
24.639721 -1.343302 -1.2976451 11
15.02459 -1.0571601 -1.3648539 9
24.616255 -0.91155827 -1.2959259 11
24.439739 -0.72795749 -1.2821908 11
24.743481 -0.25696301 -1.2988124 11
24.645363 0.90186024 -1.2944045 11
24.849236 0.87210238 -1.306572 11
24.323299 1.3763167 -1.2782254 11
24.578907 1.5138241 -1.2912349 11
5.1971512 1.7359345 -1.2059931 2
5.2103033 1.7332282 -1.2111775 2
24.584843 1.788661 -1.2982357 11
24.589062 2.3565869 -1.2990341 11
24.868988 2.4419143 -1.3147112 11
4.5570865 3.0740697 -1.2105331 2
4.8313198 2.8859594 -1.2001313 2
3.8498642 3.2323952 -1.2092006 0
22.694351 6.2909193 -1.2345384 11
22.638258 6.5347109 -1.2354553 11
-1.0242282 -8.0196419 -1.0376146 7
0.93819517 -8.0739956 -1.0513711 7
-5.4022169 -7.712986 -1.0472786 7.8333335
-3.857631 -7.8474035 -1.093154 7
-3.2080219 -7.8109307 -0.89331007 8
-3.0615633 -7.7975821 -1.0117015 7.1736116
-2.565191 -7.7960768 -1.1216111 6.5625
-2.1605511 -7.6691055 -1.1520746 6
-1.7564334 -7.830101 -1.1054435 6.4472656
-1.3844048 -7.8425632 -1.1040204 6.3808594
-0.93394423 -7.8249183 -1.059502 6.6333919
-0.44560748 -7.8544683 -1.1344732 6
-0.11366651 -7.8637228 -1.1340752 6
0.76268399 -7.839118 -1.1345408 6
3.3867264 -7.7324181 -0.88794655 8
-3.2341876 -7.577281 -1.192149 6
-3.1794763 -7.5314465 -1.185452 6
-2.5615828 -7.3478575 -1.1231486 6
-2.1928225 -7.2460127 -1.0894177 6
-1.9030674 -7.2425203 -1.0760982 6
-1.2839282 -7.3108568 -1.0990367 5.75
-0.95851564 -7.3887815 -1.1392896 5.5039062
-0.55014169 -7.5205655 -1.0827856 6
-0.24056971 -7.5016623 -1.0770569 6
-1.6079861 -7.0911012 -1.1808276 5
-1.3693169 -7.1622324 -1.1841654 5
-0.9770214 -7.1348906 -1.1682343 5
3.9279695 -6.988061 -0.88267428 8
4.0336156 -6.8557925 -0.87461591 8
3.8639953 -6.5851636 -0.98237866 6.875
4.0230289 -6.6553078 -0.85284168 8
4.4642229 -6.6214371 -0.87869757 8
3.7288296 -6.1522903 -0.94228357 6.7265625
4.4901886 -6.243021 -0.83934951 8
-5.3513927 -5.9574938 -0.89124298 8
3.7981291 -5.846067 -0.96266693 6.274653
4.1084585 -5.7165308 -0.88390386 7
1.6146764 -5.5401793 -0.9500252 5
3.5887232 -5.594655 -0.93756497 6
3.6137478 -5.5605774 -0.93514085 6
4.2471256 -5.3500147 -0.90930289 6.5019531
4.4516878 -5.4046507 -0.87792945 7
-5.2053642 -4.8594413 -0.90193069 7
-5.0798674 -4.9800386 -1.0077173 6.1203704
0.66097444 -4.8733215 -0.96943164 3.1875
3.905313 -5.1489911 -0.9087472 6
4.3449483 -4.8982706 -0.90779918 6.125
4.4263916 -5.1926737 -0.84503353 7
-5.1699953 -4.7925148 -0.91386896 6.8333335
0.64510274 -4.5120559 -1.0080997 1.8948568
3.9432797 -4.6442552 -1.1006241 4
4.3671741 -4.7445488 -0.919617 5.916667
0.63685763 -4.1205597 -0.98483551 1
3.9630728 -4.1037855 -0.9489941 4.8489585
4.3496885 -4.0596771 -1.0682521 4.0455732
4.4126573 -4.0582604 -0.9820798 5
13.17454 -4.3786745 -0.99156392 10
0.60485291 -3.6797323 -0.87552786 1
2.3512602 -3.8221395 -0.80671996 4
3.9040718 -3.9717236 -1.138633 2.4726562
4.1080923 -3.7111592 -0.90509719 4.9921875
-4.3512669 -3.3887649 -0.91111588 5
0.755431 -3.4445057 -0.82249641 1
0.96627927 -3.3974385 -0.82367384 1
1.3315438 -3.3029256 -0.83055747 1
1.8991714 -3.2922502 -0.89209664 1
4.1126146 -3.5423641 -0.94706577 4.390625
13.437098 -3.5825906 -0.99036247 10
14.094373 -3.5668266 -1.0481405 10
-4.4415197 -2.951745 -0.87728548 5
-4.3582554 -3.0580096 -0.87632561 5
4.0949187 -2.9004424 -1.1994127 0
-4.9036956 -2.6524148 -0.92274022 5
-4.4383769 -2.6300333 -0.84553277 5
-4.3656654 -2.4291785 -1.1990054 0
4.2709084 -2.5655465 -0.99926317 2.9882812
-4.9494495 -2.153276 -1.0907488 3.046875
-4.5878849 -2.140985 -1.1295319 1.8020834
-4.3323288 -2.0893903 -1.0395485 1.9453125
4.2866297 -2.0315864 -1.0259082 1.8378906
4.5991888 -2.030678 -1.0596931 2.4023438
14.981873 -2.3456106 -1.099503 10
-4.7514906 -1.9702146 -0.84378064 5
4.2171049 -1.9805599 -1.1115985 0
4.5970397 -1.8069997 -1.1299396 1.003993
4.9138412 -1.7452159 -0.99524248 3.5
24.382389 -1.7055948 -0.85713863 12
24.485975 -1.7143891 -0.85728961 12
-4.755125 -1.2297837 -0.80057925 5
-3.7733216 -1.3828673 -0.89820206 1.6614584
24.232414 -1.3523932 -0.84805363 12
-5.0373111 -0.82411599 -0.83435011 5
-4.0508327 -0.94870365 -0.82853413 3
-3.844646 -0.90922815 -0.87929416 1.7482638
-3.55582 -0.9497928 -0.86500597 1
24.198288 -1.114152 -0.84886122 12
-5.0381508 -0.79379678 -0.83672786 5
-4.6789627 -0.41894931 -1.1354587 0
-4.1541033 -0.70741189 -0.9241249 1.9921875
24.300163 -0.62175548 -0.84821236 12
24.426598 -0.41069013 -0.85318077 12
-5.0128736 -0.14497881 -0.8204459 5
-4.5878267 -0.39820984 -1.1119623 0
-4.0359864 -0.19822365 -0.90452933 1.6666667
24.584026 -0.3795557 -0.86037439 12
-4.9676795 0.067649826 -0.81270206 5
-4.4727831 0.28287899 -0.95724976 2.3535156
-4.1691756 0.1280428 -0.86880463 2.609375
-5.1448212 0.42495602 -1.1439 2
24.606205 0.78818679 -0.8643856 12
-4.9194942 1.1136565 -0.82706201 5
24.364914 0.84862792 -0.85151654 12
24.524021 0.82374763 -0.86105084 12
-4.8310323 1.4158349 -0.83519387 4.9003906
-4.7042427 1.5342393 -0.80919254 5
24.101538 1.3539772 -0.84512913 12
-4.9732971 1.6856544 -1.0406706 3.265625
-4.7932181 1.6945506 -0.81985664 5
-3.8240952 1.8839967 -0.96189582 1.6438802
-3.5396104 1.8931634 -0.86687338 2
-3.0410485 1.8444378 -0.8361963 1
4.792366 1.8329304 -0.9000302 4.25
4.9769053 1.7822564 -1.0252516 3.3506947
24.092051 1.6924496 -0.8463583 12
-4.8639412 2.0711348 -0.87117225 5
-4.0210829 2.0425291 -0.82328081 4
-3.2040951 2.0079377 -0.88292027 1
24.298752 2.2609382 -0.85691077 12
24.451664 2.2975955 -0.85947967 12
-3.209343 2.4622381 -0.86945528 2.0833335
-3.1957073 2.4701452 -0.87236989 2
-2.0922742 2.6322951 -0.817855 0
-1.9896117 2.7008736 -0.80481195 0
4.7965317 2.5860319 -1.160906 2
4.8137913 2.6152167 -1.1608586 2.0625
-1.3542891 3.0998342 -0.82200086 0
-1.1597514 3.0966806 -0.80339503 0
4.3214912 2.9959528 -0.85606784 5
4.6254983 2.9609578 -1.1507001 2.3159723
4.854001 2.8867216 -1.0802531 3.3003473
1.1620247 3.5083389 -0.86629659 1
1.5404756 3.5815368 -0.91788435 0.875
1.8096769 3.5919805 -0.95495546 0
2.2374408 3.5122669 -0.92210615 1.3368056
2.6347647 3.5420258 -0.95498788 1.8590341
3.0234327 3.4833193 -0.99376059 2.1188152
3.4095697 3.3936434 -1.0700669 1.2784505
3.818526 3.3564448 -1.128854 1.71875
4.1605701 3.3429685 -1.0462873 3.2304688
-2.1298575 3.9214044 -0.9727385 2
-1.7244647 3.8550191 -0.92679989 1.9707031
-1.3107158 3.859905 -0.85954612 2.3650551
-1.0161831 3.8307986 -0.89726108 1.4694011
-0.29328215 3.760149 -0.88767242 1
0.76517403 3.6758256 -0.87941384 1
1.0446713 3.6480532 -0.89210939 1
1.2737772 3.6323862 -0.90532494 0.9921875
1.6525235 3.6014845 -0.93696171 0
1.0839167 -8.1458464 -0.45852768 11
1.2864722 -8.0853643 -0.75985408 9
2.7644136 -8.2186127 -0.64991832 10
-5.2950106 -7.828352 -0.49957034 11
-3.8146172 -7.7728724 -0.65456092 10
-3.5445373 -7.6044302 -0.62502921 10
-2.9734101 -7.657424 -0.4667272 10.96875
-2.4526923 -7.6639986 -0.52203596 10.5
-2.2652814 -7.7612624 -0.59473246 10.033998
-1.4304644 -7.8513889 -0.58420032 10.015625
3.495183 -7.6245012 -0.62192911 10
-3.620008 -7.5914116 -0.63207936 10
-3.5699527 -7.5835299 -0.62765634 10
-3.0938725 -7.5744715 -0.76284885 9
-2.3440034 -7.5655203 -0.72391385 9
-5.3218145 -6.8177152 -0.65649956 10
4.320972 -6.9742498 -0.60722089 10
-5.325058 -6.7991562 -0.65393054 10
-5.2886038 -6.2368584 -0.61330378 10
-5.288516 -5.9810467 -0.4464021 11
4.5180812 -5.7838173 -0.79456902 8
4.3818865 -5.2028947 -0.51259559 10
4.5397797 -5.4338965 -0.75808656 8
0.90553868 -4.924921 -0.54542243 8
4.297935 -4.8630676 -0.76909089 7.28125
4.546185 -5.1486888 -0.73062867 8
0.74465317 -4.5265627 -0.66136855 6
3.97486 -4.584352 -0.65995204 8
4.1573873 -4.5116558 -0.48365825 9.6380215
4.4765887 -4.5526133 -0.67855346 8.0742188
-4.5341783 -4.0163431 -0.44287223 10
1.5221641 -4.1328373 -0.48655587 8
3.9625344 -4.2244925 -0.62451267 8
4.3161201 -4.2845592 -0.54616547 9.03125
4.4333282 -4.0037847 -0.64849561 8
-4.505744 -3.7575722 -0.5627991 8.7265625
-4.3808198 -3.6196394 -0.61813295 8
0.72476649 -3.7385492 -0.73477674 3.1920574
0.9965325 -3.7518227 -0.66875243 4.4167967
1.3526838 -3.6342082 -0.60704625 5.390625
1.8024663 -3.729095 -0.62558198 5.7203779
2.1848173 -3.703841 -0.7500084 4.3842449
4.237164 -3.6627445 -0.50835025 9
-4.4438696 -3.2253656 -0.41711044 10
-4.3388472 -3.266768 -0.58218074 8
1.1655091 -3.5833781 -0.61243582 5
1.4487609 -3.5755327 -0.6317367 5
1.7891284 -3.5245903 -0.71965945 3.90625
2.0670052 -3.5684071 -0.68116093 5
4.173542 -3.3867679 -0.62176025 7.625
-4.8331079 -2.8755648 -0.43286794 10
-4.4836702 -2.8811417 -0.50078213 9.0013027
-4.3922596 -2.8598795 -0.48414963 9
1.5688872 -3.1137061 -0.77043784 2
1.6876249 -3.0925109 -0.77929759 2
4.3707838 -3.0132518 -0.58698571 8
-4.5744047 -2.6374531 -0.59295827 8
4.19699 -2.6226587 -0.62871683 6.9130211
4.424901 -2.7831392 -0.57327455 8
-4.8945308 -2.1314578 -0.53273886 8.6875
-4.6089754 -2.1592939 -0.51579815 8.5162764
-4.185792 -2.0340924 -0.67437828 6
4.370667 -2.0633097 -0.51741481 8
4.6714592 -2.0350068 -0.63416243 7.1432295
-4.9798317 -1.8782482 -0.52488649 8.7597656
-4.1765532 -1.9965734 -0.67250735 6
4.105701 -1.9293337 -0.64772254 6
4.5811033 -1.8288137 -0.66350853 6.5042415
4.952497 -1.7797487 -0.65466136 7.2070312
-4.8556023 -1.290679 -0.68971866 6.5
-4.776588 -1.2462857 -0.76244104 5.5
-5.225584 -0.87072688 -0.59735578 8
-4.9936752 -0.84662318 -0.60401535 7.5680342
-4.7509346 -0.85120285 -0.74719244 5.5
-3.7264371 -0.96512336 -0.76623446 3
-5.2370682 -0.76275748 -0.4641487 9.333334
-5.183558 -0.78791702 -0.48483789 9
-5.2639518 -0.17322582 -0.59284687 8
-4.2679877 -0.083820283 -0.69267482 5
-3.9346447 -0.14273348 -0.78661597 3
-5.2527647 0.10476052 -0.58972609 8
-5.0713749 0.18950787 -0.68958962 6.5
-5.234293 0.62464362 -0.59469748 8
-5.165204 0.60440558 -0.5834676 8
-5.2246323 0.97037673 -0.58784652 8
-5.0736618 0.98963845 -0.65666103 7.1614585
-4.9517374 1.4118762 -0.68985271 6.75
-4.7231102 1.4831836 -0.77065194 5.4765625
-4.9182348 1.8334005 -0.76211345 6.1875
-4.72299 1.6428404 -0.73822582 6
-3.7455742 1.9495404 -0.7096411 5
-3.4266489 1.9592822 -0.73151219 3.6953125
-3.0732498 1.838876 -0.70388556 3.322247
-2.5404265 1.8911862 -0.58077443 4
-2.3318198 1.873839 -0.48259169 5.234375
-1.7757059 1.9195757 -0.55824858 2.4945314
4.6979942 1.7665553 -0.76057374 5.6158857
5.0300684 1.779819 -0.61809933 7.7165365
5.3315706 1.7456226 -0.42420572 10
-5.0094719 2.2555854 -0.47646368 9.4016933
-3.2426386 2.1480963 -0.77483922 3
-3.0631862 2.226613 -0.67301118 4.263021
-2.4707253 2.1998329 -0.41873094 7
-2.3230073 2.1474113 -0.76255345 1
-1.7545198 2.0956969 -0.55151355 3.09375
-1.5132244 2.324723 -0.65678942 1
4.7954931 2.1350107 -0.76832676 6
4.8787184 2.2466438 -0.6412155 7.5144038
-4.9627075 2.5737734 -0.47656006 9.489584
-4.6704988 2.6446948 -0.51972783 8.84375
-2.047847 2.5930371 -0.60543489 3.5
-1.8686202 2.6368663 -0.49936828 5.3952551
-1.4275637 2.5190282 -0.64258361 1.797338
-1.1600945 2.7619395 -0.6524483 2
5.0085344 2.6309295 -0.43175924 10
-4.5630655 2.9764271 -0.53831422 8.6816406
-1.8295946 2.8948202 -0.46926892 6.5
-1.4201204 2.9095049 -0.5927425 4
-1.1582342 2.9557292 -0.73518103 0.89583337
4.3358669 2.9906473 -0.73733795 6.375
4.5961952 3.0553741 -0.50040376 9.1163197
4.9258614 2.9620888 -0.6203618 8
-4.639266 3.2313313 -0.44023359 10
-0.64162922 3.5391788 -0.69259077 3.5
0.45475072 3.3988924 -0.75732839 2
1.1104517 3.492888 -0.57207596 5.4544272
1.3518906 3.5732636 -0.73980761 3.1145835
1.8386571 3.5229368 -0.74284816 3.5955729
2.1642656 3.4401479 -0.62059116 5.5455732
2.6330712 3.4885492 -0.57353616 6.53125
2.849575 3.4464316 -0.65459806 5
3.5103419 3.4830642 -0.72268593 6
3.9457211 3.5273032 -0.65312421 7.3186851
4.2454166 3.4207191 -0.53749323 8.692709
4.4649763 3.3923345 -0.45819709 9.6875
-4.4965229 3.9989567 -0.65379041 8
-3.6905363 3.9604533 -0.56900954 8
-2.9752853 3.9903917 -0.45882919 9
-2.05757 3.900075 -0.51172519 7.7695312
-1.8801022 3.7356591 -0.64259142 5.7307944
-1.3777475 3.7768648 -0.73523289 3.8541667
-1.0379119 3.8723249 -0.62958539 5.2539062
-0.60509932 3.6926408 -0.64040208 4.6582031
-0.33221671 3.7354558 -0.73957145 3
0.88831758 3.6468825 -0.73730731 3
1.4486825 3.6904163 -0.7360909 3.6113281
1.7481916 3.6300054 -0.52203828 6.763021
2.2071228 3.6770449 -0.65149045 5.1018519
2.6043468 3.6937938 -0.47956026 7.5989585
2.8576927 3.6813574 -0.50315565 7.5
3.6514919 3.6225798 -0.55958128 8
-4.5579147 4.1238995 -0.62872732 8.5019531
-3.782814 4.0609555 -0.47980374 9.5
-3.3757796 4.0971651 -0.59986258 8
-3.0956082 4.0733929 -0.56989264 8
-2.4315081 4.0497561 -0.51334202 8
-2.2672648 4.032136 -0.4425047 8.9960938
3.9499443 -8.4870176 -0.36695081 12
-3.8775029 -8.0048122 -0.34354955 12
-2.4223881 -8.0918684 -0.31847039 12
-1.3974952 -8.0106335 -0.11884037 13.552084
-0.9893834 -8.0283356 -0.06405481 14
-0.60007501 -8.0393505 -0.062383495 14
-0.19836371 -8.0694389 -0.061915472 14
0.19895248 -8.0998001 -0.061920431 14
0.63428456 -8.0950699 -0.057203047 14
1.0687704 -8.1625195 -0.06607274 14
1.3889477 -8.1824512 -0.068901218 14
1.6402633 -8.1787453 -0.070516884 14
2.0996883 -8.0116234 -0.15718558 13
3.5639725 -8.1899328 -0.12851956 13.5
3.9800105 -8.1338329 -0.34863386 12
4.3871164 -8.0896358 -0.3573384 12
-5.4795723 -7.8862696 -0.38937396 12
-4.5951481 -7.7035832 -0.08257255 13.984375
-4.3126354 -7.991076 -0.359299 12
-3.7699413 -7.8092546 -0.25715864 12.5
-3.3457975 -7.7646565 -0.2691302 12.394531
-3.1819024 -7.6103992 -0.05684264 14
-2.4268799 -7.7978373 -0.18499622 13
-2.2069817 -7.8847017 -0.079356663 13.833334
-1.7970566 -7.9213667 -0.057112753 14
-1.4205465 -7.931119 -0.062988065 13.916667
-1.0066886 -7.9447637 -0.048078481 14
-0.64187765 -7.9658203 -0.047241226 14
-0.34508651 -7.9874172 -0.047295921 14
3.5807369 -7.8327279 -0.10729584 13.589844
3.6154261 -7.7538743 -0.16957849 13
4.2134104 -7.8420143 -0.12709934 13.5
-5.3073997 -7.4628916 -0.17992848 13.191406
-4.2022133 -7.552597 -0.17799762 13
-3.6203763 -7.5697927 -0.11605414 13.5
-3.5915401 -7.5650969 -0.060908571 14
-3.1621561 -7.5928593 -0.058126301 14
4.1961794 -7.2119427 -0.16162132 13
-5.3525019 -7.1705093 -0.082247302 14
4.2480617 -7.0306511 -0.10225351 13.507812
-5.2802324 -6.4933786 -0.11347964 13.582031
4.3711262 -6.682003 -0.05836799 14
4.445734 -6.432344 -0.0014666183 15
-5.2844801 -6.1285048 -0.058986209 14
4.5146551 -6.2561579 -0.2673063 12.011719
-5.2610102 -5.8389177 -0.050298475 14
4.4426165 -5.9703484 -0.16696174 13
-5.3574142 -5.5109925 -0.27493727 12
4.5141134 -5.2187271 -0.061258964 14
4.5258017 -4.9865265 -0.10911804 13.287039
-4.8024311 -4.5719204 -0.13358504 13
-4.7798986 -4.5729685 -0.13347945 13
4.0347848 -4.481225 -0.32004571 11
4.459455 -4.709322 -0.065802634 14.237655
-4.8248291 -4.3056302 -0.0057213819 15
4.5310278 -4.1332073 -0.0023714923 15
4.2970037 -3.6631289 -0.16700727 12.589844
4.4467678 -3.9093208 -0.23632839 12
12.52297 -3.9228497 -0.29187489 13
-5.1060953 -3.3174846 -0.0073968247 14.990741
-4.5505762 -3.2740741 -0.13390453 12.976562
4.2702923 -3.2906699 -0.2044504 11.958855
-5.1424413 -3.0267837 -0.16990308 12.963542
-4.5371838 -2.9251387 -0.19123548 12.328776
-4.3197041 -2.9650826 -0.16043016 12.505859
4.2506289 -2.9517388 -0.27520138 11.004558
4.4420166 -2.9001453 -0.19377157 12
-4.9870911 -2.4939313 -0.30756521 11.125
3.9795003 -2.6519489 -0.03820746 14
4.127686 -2.6591425 -0.1489089 12.492188
15.106587 -2.400682 -0.29402244 13
-4.9533567 -2.0977516 -0.29656959 11.08737
-4.4932508 -2.1244235 -0.084054433 13.5
3.9809291 -2.2043657 -0.027910393 14
4.2189035 -2.054565 -0.20928141 11.72832
4.5731583 -2.0770533 -0.071678303 13.640625
4.8279476 -2.0604229 -0.12124885 13
15.009171 -2.3370085 -0.29123154 13
-4.8855286 -1.9057014 -0.26725891 11.25
-4.1192169 -1.9806311 -0.0069614761 15
4.6486368 -1.7884916 -0.20205733 12
4.9028492 -1.8267697 -0.16106072 12.496094
-4.9821444 -1.4734586 -0.17454392 12.648921
-5.3192358 -0.82719857 -0.19202214 12.25
-5.1095877 -0.9420355 -0.15012184 12.770689
-5.2726469 -0.58042896 -0.39806917 10
-5.1162801 -0.49012977 -0.28992027 10.875
-5.2661352 -0.36882052 -0.15300235 13
-5.0817428 -0.34802788 -0.27889037 11
-5.2871747 0.28025442 -0.20060578 12
-5.1823835 0.088401623 -0.38799277 10
-5.2686524 0.56435329 -0.20208092 12
-5.1668506 0.62650251 -0.0062068948 15
-5.2419891 1.0815239 -0.20834319 12
-5.0018182 1.0209153 -0.28090546 11
-5.2139726 1.2068433 -0.20590195 12
-5.1204786 1.4019437 -0.15153819 13.205729
-5.064642 1.816891 -0.23803535 11.754558
5.0194125 1.8014314 -0.14037001 13.108414
-4.8612151 2.15098 -0.070866883 13.671875
-4.7974558 2.2313521 -0.040550508 14
4.7925601 2.2637901 -0.03341759 14
4.8847671 2.2206569 -0.075941823 13.460649
-4.956521 2.5948677 -0.18910217 12.459115
-4.6553211 2.6449864 -0.24166179 11.710287
4.9568329 2.6278071 -0.16946085 12.5
-4.4449263 2.856987 -0.041138887 14
4.3191819 3.1323042 -0.027005482 14.731482
4.5434494 3.0310898 -0.24667388 11.682292
4.9545803 2.9639361 -0.1112707 13.320312
-4.564373 3.4334908 -0.18129262 12.820988
1.1898123 3.5499613 -0.34039763 9
1.3285272 3.5738258 -0.24690711 10.563803
1.94122 3.5051582 -0.37215805 9.0436201
2.128962 3.5388718 -0.18568382 11.847223
2.5761957 3.5700722 -0.24915877 10.527995
3.0716734 3.5081029 -0.23000172 11.116667
3.391078 3.5107069 -0.11632301 13.079219
3.8961732 3.5659308 -0.073825739 13.875
4.2273512 3.2861466 -0.02688637 14.75
4.4231644 3.3848867 -0.30549628 11.114584
-4.6004925 3.6970303 -0.17483756 12.878472
-3.4585309 3.9364834 -0.1181234 13.0625
-2.9150662 3.9872627 -0.20279412 12
-2.5984788 3.8797398 -0.16852129 12.743828
-2.2482469 3.9035711 -0.088849455 13.495199
-1.7659819 3.880192 -0.18490815 12
-1.5162833 3.7868299 -0.24051344 11
-1.1055621 3.8890254 -0.09259434 13.499733
-0.65956318 3.8327634 -0.10833818 13.090964
1.0986391 3.7865496 -0.10105964 13
1.4145451 3.6855593 -0.049103372 13.995886
1.7316282 3.7597451 -0.32094237 10
2.0954692 3.7403903 -0.39105171 8.75
2.7477214 3.6399751 -0.04494692 13
3.0965068 3.7049928 -0.10352418 12.25
3.4374056 3.6854701 -0.11437443 13
3.7801502 3.6391544 -0.15430868 12.592593
-4.5658584 4.1028848 -0.18118021 12.998457
-4.2511468 4.1381645 -0.20395166 12.487847
-3.8820639 4.0304794 -0.3270182 11
-3.3338916 4.1095977 -0.093165837 13.724109
-2.8577964 4.0303097 -0.1353164 12.998458
-2.5508022 4.1076345 -0.098579854 13.166667
-5.3357315 -7.7270975 0.0083417967 15
-4.9210386 -7.7402267 0.013207363 15
-5.3852978 -7.5326476 0.010884663 15
4.4518228 -6.4371586 0.0026127342 15
4.432076 -4.7356901 0.0015950524 15
-4.8329787 -4.3266501 0.00037248433 15
4.4983139 -4.1765227 0.0061551593 15
-5.1284056 -3.3166456 0.0017483908 15
-4.1346898 -1.9955233 0.0032604539 15
4.753314 -1.935131 0.0054423353 15
4.8195019 -1.8083651 0.0037164642 15
-5.0622635 -1.5545127 0.0014183223 15
-5.1050205 -0.89657283 0.001372683 15
-5.2817035 -0.40293467 0.0010588161 15
-5.2767401 -0.39586917 0.0015707761 15
-5.1514573 1.3426149 0.00035119057 15
5.0028629 1.7980449 0.0030420115 15
4.2961736 3.1258163 0.002255511 15
-4.6211843 3.5665126 0.0082479157 15
3.1966307 3.3621707 0.00098409294 15
3.2146003 3.3660698 0.0012856732 15
4.2071581 3.2628105 0.0018110641 15
-2.5507584 3.8051412 0.0017428924 15
-2.3945603 3.7816947 0.0074368119 15
-1.1651456 3.8892527 8.9421868e-05 15
-0.7097227 3.8686023 0.0059570386 15
1.2750866 3.7254798 0.00637626 15
-4.5932484 4.0701699 0.00019304454 15
-3.4157813 4.0805998 0.00042741001 15
