# .PCD v0.7 - Point Cloud Data file format
VERSION 0.7
FIELDS x y z intensity
SIZE 4 4 4 4
TYPE F F F F
COUNT 1 1 1 1
WIDTH 1332
HEIGHT 1
VIEWPOINT 0 0 0 1 0 0 0
POINTS 1332
DATA ascii
17.877209 14.694154 0.006723328 15
13.851797 15.592002 0.030506749 15
17.582623 15.230139 0.0014352214 15
13.770807 15.668926 0.028905954 15
14.033946 15.662036 0.026671832 15
14.712584 15.817571 0.020754758 15
15.13489 15.942881 0.0168598 15
13.41403 16.55884 0.025738833 15
13.4367 16.828251 0.025218807 15
13.127825 17.881414 0.019288834 15
13.44375 17.837364 0.017506454 15
14.079636 17.983006 0.012212859 15
-8.7042713 18.428846 0.072476648 15
13.139171 18.016724 0.019343119 15
14.27676 18.036364 0.010202424 15
-8.8173246 18.829243 0.069369778 15
-8.0220537 19.053118 0.069770679 15
12.905458 18.91795 0.014098465 15
-9.0912256 19.654243 0.063625053 15
12.482251 20.092716 0.008932488 15
13.167919 20.246609 0.0036119926 15
-9.328311 20.674065 0.055772118 15
-2.0503163 20.889286 0.055287011 15
12.348835 20.724939 0.0052049393 15
-9.5497551 21.55323 0.034555394 15
-2.2382698 21.107948 0.053423718 15
-9.6586781 21.976582 0.045458242 15
-9.5577278 21.640392 0.045257531 15
-2.7741985 23.915194 0.03360144 15
-0.83459449 23.984106 0.02906014 15
-0.86166501 24.010658 0.024675667 15
-0.5286833 24.05772 0.0264972 15
5.463573 -21.653566 -2.4046612 8
5.7030344 -21.63937 -2.4197993 8
6.6470056 -21.674747 -2.4492922 8
6.9230137 -21.662445 -2.4561319 8
7.3752985 -21.595461 -2.4783392 8
7.8929496 -17.910818 -2.4352498 7
4.0617738 -21.756958 -2.3865421 8
7.9251966 -20.012947 -2.3184724 8
7.925993 -19.981228 -2.3082771 8
8.6905823 -19.324203 -2.2736976 8
8.6675024 -19.176193 -2.261338 8
8.8405876 -18.921045 -2.2473035 8
8.8688698 -18.740723 -2.2211957 8
17.75913 -16.897587 -2.2184598 9
7.9866161 -16.456745 -2.2651939 7
8.0215874 -16.534451 -2.276773 7
7.9382715 -16.095783 -2.2169595 7
8.0034266 -16.352654 -2.2510662 7
0.92090583 -15.92131 -2.2306986 6
7.9050317 -15.982998 -2.203403 7
3.5728548 -15.493659 -2.2323434 6
3.726114 -15.459691 -2.2283087 6
4.7604599 -15.463509 -2.2735038 6
4.8429332 -15.469777 -2.2834067 6
5.556334 -15.420088 -2.3183577 6
7.0575752 -15.043993 -2.3424873 6
7.3674116 -14.918042 -2.346242 6
7.7856426 -14.871352 -2.1647606 7
7.513032 -14.583454 -2.3107982 6
7.8116441 -14.457491 -2.1181376 7
7.4081378 -14.156006 -2.245543 6
7.7958918 -14.153483 -2.0765569 7
7.7139149 -13.804368 -2.0306091 7
7.7408152 -13.570328 -2.0017934 7
-1.2148991 -10.809908 -2.1009512 3
-1.1911676 -10.813714 -2.1047049 3
-0.76450431 -11.019663 -2.002686 4
0.49542388 -10.901963 -2.1111503 3
20.600603 -10.830377 -2.0915256 9
-1.214709 -10.796609 -2.1058359 3
20.608006 -10.755747 -2.0964394 9
5.8746614 -10.009125 -2.2632732 3
20.613277 -10.11809 -2.0681796 9
-1.4009373 -9.6052704 -2.058147 2
-0.73743141 -9.7286062 -2.073343 2
5.9085064 -9.9617443 -2.2560248 3
6.2909594 -9.6265774 -2.2394323 3
16.271662 -9.8771744 -2.0337033 8
-1.4709436 -9.5237122 -2.0398698 2
3.6073384 -9.3394146 -2.1302257 2
6.2982569 -9.5927505 -2.2374301 3
6.158977 -9.0113726 -2.1194625 3
5.5386271 -8.6504288 -2.1912892 2
5.6083641 -8.6389608 -2.1959555 2
5.9266529 -8.2951126 -2.1744375 2
3.249809 -7.9234476 -2.0339744 1
3.7288253 -7.6844397 -2.0259919 1
4.2897377 -7.3786316 -2.0251276 1
4.6991448 -7.2066965 -2.0399745 1
4.9315238 -7.0494552 -2.0415592 1
5.3281493 -6.8546362 -2.0624943 1
5.4218283 -6.7568493 -2.0565014 1
-15.152117 -5.0345564 -2.0096111 7
-23.330648 -4.7576995 -2.1326926 9
-14.953369 -4.6522169 -2.0043421 7
-23.302898 -3.9769218 -2.126754 9
-19.20262 -3.3880699 -2.0761018 8
-19.177895 -3.5274065 -2.0290694 8
-23.587093 -2.8065577 -2.1288211 9
-19.207163 -2.9119749 -2.0206323 8
-23.549152 -2.7050958 -2.0695615 9
-19.279245 -2.2764468 -2.0273018 8
-19.391975 -1.8764958 -2.0295084 8
7.7516756 -13.539683 -1.9980869 7
7.48879 -12.946344 -1.6329241 8
7.644208 -13.183404 -1.9498866 7
7.5248966 -12.715621 -1.8841356 7
23.62521 -12.428143 -1.9575021 10
23.523333 -12.02026 -1.9344764 10
23.634102 -12.371362 -1.9550729 10
23.493246 -11.896388 -1.9250507 10
23.521608 -11.483668 -1.9166911 10
-1.0487089 -10.944368 -1.9842752 4
-0.70864093 -10.999008 -1.9897058 4
23.425861 -11.070114 -1.8900429 10
-1.3821723 -10.521693 -1.9101031 4
-1.0859574 -10.73804 -1.9485708 4
-0.46592396 -10.741781 -1.9383379 4
-0.2982581 -10.715447 -1.9313866 4
23.404852 -10.633671 -1.8794382 10
0.35019934 -10.115811 -1.8185506 4
23.272989 -10.089029 -1.8496213 10
-1.6074264 -9.8100843 -1.7807908 4
-1.568503 -9.9692974 -1.8110093 4
23.193026 -9.8726444 -1.8355668 10
23.111523 -9.2600479 -1.8150637 10
-1.8369136 -8.8542213 -1.6076577 4
6.0379658 -9.0648575 -1.9746082 4
5.9927616 -8.6853971 -1.9088677 4
6.1573997 -8.5876856 -1.9122458 4
23.067366 -8.4025831 -1.7811004 10
-1.6638001 -8.067728 -1.9427412 1
-0.60353458 -8.2351179 -1.9495273 1
0.11483951 -8.3414297 -1.9753914 1
0.45092326 -8.304553 -1.9728807 1
0.91487312 -8.3426495 -1.9903803 1
6.2147865 -8.1788101 -1.85535 4
23.085735 -8.162612 -1.7781389 10
-2.0446379 -7.7903285 -1.8942792 1
-1.7409559 -7.9165659 -1.9100565 1
6.1767101 -7.8698125 -1.8063149 4
-2.1324785 -7.3903542 -1.8042481 1
5.9202042 -7.4046559 -1.7027304 4
6.0032187 -7.5884404 -1.7419494 4
5.9406257 -6.9720392 -1.6413654 4
-2.3552589 -6.5300798 -1.6147239 1
-4.9033127 -6.29353 -1.8621067 0.5
-4.4827356 -6.2097511 -1.7907526 0.99999237
-4.2752838 -6.1829205 -1.7554008 1.0078125
-3.8050444 -6.0518265 -1.6644199 0.99999881
5.3496337 -6.3237886 -1.9627795 1
5.7013845 -6.2599535 -1.8577106 2
6.7940922 -6.0448093 -1.6278393 4
6.814786 -6.0596986 -1.6339786 4
-12.72886 -5.655457 -1.8122256 6
-3.4447064 -5.9731588 -1.7115352 0
5.3827405 -5.8213034 -1.870914 1
5.8036451 -5.9448805 -1.821233 2
6.2157278 -5.6549616 -1.8431387 2
7.0360985 -5.8282828 -1.6377977 4
7.5273943 -5.7025151 -1.6972494 4
7.6257076 -5.6882486 -1.7102928 4
12.876698 -5.743618 -1.7933371 7
16.757179 -5.9409771 -1.8813151 8
-14.158919 -5.3083634 -1.6131358 8
-13.97702 -5.3887935 -1.6083934 8
-12.993517 -5.4018764 -1.7403347 6.25
-12.66448 -5.4915133 -1.6767035 6.5
5.4048443 -5.4694185 -1.8143905 1
6.2549233 -5.4819531 -1.8224142 2
7.9748631 -5.3883314 -1.7323785 4
8.1159945 -5.3541965 -1.7512527 4
12.91659 -5.2831116 -1.7740589 7
23.428904 -5.2494035 -1.7371336 10
-14.974485 -4.9217367 -1.9835353 7
-14.177789 -5.1247754 -1.74699 7.4990234
6.7190828 -4.8848495 -1.8210332 2
8.2152824 -5.0575652 -1.7363461 4
12.931339 -4.9062195 -1.7537737 7
23.542334 -5.0780315 -1.749444 10
23.642231 -4.9236689 -1.7577269 10
-14.893695 -4.6407404 -1.9126941 7.1666975
-9.14711 -4.4865103 -1.7978504 3
5.9280696 -4.7407603 -1.7867217 1
6.0519881 -4.5288906 -1.7775569 1
6.9569273 -4.4389806 -1.8112915 2
8.5155525 -4.5146627 -1.7368474 4
13.007661 -4.5533967 -1.7486932 7
24.054304 -4.4871092 -1.7808743 10
-15.207358 -4.1092496 -1.7308644 8
-14.871117 -4.2311907 -1.6588149 8
-14.774288 -4.1982298 -1.6450098 8
-9.2949448 -4.3461008 -1.8210905 3.25
-8.4674168 -4.168293 -1.7053541 3.5
-8.1866188 -4.2119942 -1.6696975 3.25
6.1931667 -4.2041326 -1.7598435 1
7.0352173 -4.3569088 -1.814599 2
8.7030878 -4.0956979 -1.7320646 4
13.021944 -4.1477442 -1.7329116 7
23.982927 -4.0016298 -1.7581216 10
24.115475 -4.2577219 -1.7832804 10
-14.123499 -3.8670068 -1.826136 7
-9.6610174 -3.6481776 -1.8440056 4
-7.3376722 -3.8877897 -1.8000478 2
-6.8883224 -3.7556248 -1.7393326 1.5820312
-6.6374884 -3.7199836 -1.7269384 0.50976562
-6.1527691 -3.6055405 -1.6628243 0
6.265132 -3.9806049 -1.7478656 1
6.6249628 -3.7088492 -1.7857705 1
7.1346254 -3.7585726 -1.7682288 2
8.7553577 -3.8109879 -1.7149413 4
13.187366 -3.8781781 -1.7404795 7
13.259733 -3.6658893 -1.7451479 7
23.574137 -3.6231194 -1.730298 10
23.966951 -3.9688635 -1.7663116 10
24.01232 -3.9677737 -1.7646964 10
-15.496631 -3.4941831 -1.7129171 8
-9.8238678 -3.4988103 -1.8582258 4
-6.9884043 -3.5204163 -1.8278432 1
-6.1861324 -3.5709057 -1.6629143 1
-5.6020284 -3.4581764 -1.6034861 0
7.0035467 -3.4855299 -1.8449669 1
7.2809362 -3.4086404 -1.8483384 1.3672017
7.7842965 -3.335537 -1.8587816 2
8.7412176 -3.5423543 -1.69183 4
8.8554096 -3.2979469 -1.6981053 4
13.254261 -3.5384805 -1.7376163 7
23.540924 -3.5722463 -1.7279748 10
-7.3284492 -2.8660996 -1.8363125 1
-7.1385183 -3.0101116 -1.7999483 1
7.4014988 -2.9154859 -1.8788877 1
8.8701916 -3.1779375 -1.6933771 4
9.8333864 -2.9444895 -1.8566337 4
13.136211 -3.1478705 -1.7095354 7
7.2471266 -2.5943229 -1.8124615 1
9.9092484 -2.4823489 -1.8469715 4
13.141795 -2.6646409 -1.6957667 7
7.3717976 -2.0919404 -1.8004775 1
8.1643848 -2.3086271 -1.8621244 2
9.748497 -2.2612088 -1.8051643 4
15.896858 -2.1570132 -1.7709978 8
7.403913 -1.9069667 -1.8019559 1
9.6812992 -1.8681083 -1.7777903 4
13.825834 -1.7296479 -1.7647489 7
15.793074 -1.7344061 -1.7534634 8
-10.176396 -1.5129392 -1.8314334 4
-7.6109691 -1.5557607 -1.810361 1
9.6542091 -1.4236988 -1.7546126 4
13.697713 -1.3227217 -1.7420412 7
15.715128 -1.4994514 -1.7431827 8
17.448933 -1.2114328 -1.6325302 9
15.338566 -0.94400364 -1.6881835 8
17.444538 -1.178157 -1.632558 9
-8.4483337 -0.45062098 -1.8303242 2
15.288006 -0.6814754 -1.6798482 8
-10.211568 -0.2943514 -1.8151549 4
-8.4721422 -0.38260639 -1.8423549 2
9.2648687 -0.15013552 -1.6609985 4
15.168145 -0.22526741 -1.6636629 8
-10.144507 0.36186859 -1.8120537 4
9.2286129 0.040696517 -1.6506556 4
-10.177019 0.78109932 -1.8118942 4
-7.6361003 0.51093596 -1.7854952 1
7.0691948 0.70329642 -1.6652712 1
9.0182047 0.55045533 -1.6134373 4
-10.15402 0.82522929 -1.8110757 4
-9.9137745 0.95858514 -1.7646142 4
-9.3273182 1.0717564 -1.6617571 4
-9.13416 1.115766 -1.6258196 4
-8.4158583 1.0318084 -1.8317026 2
-8.3465729 1.1889303 -1.8213592 2
-7.6216669 1.1679375 -1.8025715 1
6.9328265 1.091306 -1.6425374 1
12.745152 1.0871978 -1.6031328 7
-8.191577 1.2682879 -1.7911451 2
-7.4100695 1.3962623 -1.7508752 1
6.9268684 1.4160581 -1.64904 1
6.5513535 2.2324245 -1.6177628 1
6.3714705 2.7610333 -1.6206659 1
5.9759793 3.4654164 -1.6105158 1
6.0417414 3.4963484 -1.6241591 1
6.621973 3.5270853 -1.6273656 2
5.6659203 3.9416299 -1.6053393 1
6.0030203 3.6105938 -1.6304152 1
6.1617079 4.1490946 -1.6066995 2
-5.0865579 4.7101092 -1.6011684 1
-5.2114487 5.0210376 -1.6737655 1
-5.1885338 5.0227928 -1.6673877 1
-5.0354891 5.2269802 -1.678968 1
-5.3274016 5.8242416 -1.6971264 2
-4.2787828 5.9161081 -1.7031581 1
-4.2503242 6.0201225 -1.7133484 1
-3.2310376 6.6403542 -1.7204365 1
-2.8088496 6.7928734 -1.7115029 1
-5.7550182 7.106576 -1.6097074 4
-2.8791227 6.8319654 -1.7168987 1
-1.9171929 7.1469069 -1.7156727 1
-5.6164474 7.2858448 -1.6204426 4
-4.0439148 8.4602728 -1.6556296 4
-3.7108567 8.6177282 -1.6598099 4
-2.4678235 9.1742249 -1.6813142 4
-6.8610172 11.171752 -1.6135643 7
-6.7065277 11.449112 -1.6358674 7
-6.2997637 11.801088 -1.6532578 7
-5.895946 11.962488 -1.6633973 7
-5.8002338 12.020947 -1.6523501 7
-4.7320442 12.464985 -1.6531022 7
-7.4585476 12.945978 -1.6035781 8
-3.5275049 13.036268 -1.6732469 7
-7.2178469 13.314 -1.620653 8
-7.1875639 13.326713 -1.6198105 8
7.290483 -23.320234 -1.2900275 11
7.3367882 -23.134289 -1.2802173 11
9.5566235 -21.485062 -1.2373376 11
10.862043 -20.938511 -1.2437098 11
7.9527311 -15.026901 -1.2626816 10
8.0346298 -15.026777 -1.2665083 10
7.934474 -14.669121 -1.2345054 10
7.8965416 -14.235994 -1.2016848 10
6.948966 -11.055923 -1.3989215 8
6.9536314 -10.663546 -1.4913216 7.4375
6.7624903 -10.211303 -1.5251092 7
6.82969 -10.324321 -1.3184233 8
6.5974312 -9.8006115 -1.4645458 7
-1.6963177 -9.3132381 -1.5516694 5
6.5005264 -9.476697 -1.3922036 7.125
-1.8172915 -8.8244953 -1.3839817 5.5
6.4728441 -8.9297056 -1.3704319 7
-1.9394754 -8.7044487 -1.4016126 5.2164717
6.3801966 -8.5845737 -1.3687856 7
6.4767466 -8.7398357 -1.3652892 7
6.204648 -8.0696316 -1.2952187 7
6.1281714 -7.7020493 -1.2438412 7
-2.2801886 -7.2086477 -1.4958267 3
5.9705 -7.337657 -1.5628033 5
6.1331229 -7.3844953 -1.2082589 7
8.7847128 -7.2940011 -1.2024473 8
-6.5249047 -7.0785103 -1.2083561 7
-6.2365198 -6.8077021 -1.5029522 5
-5.5899796 -6.9046674 -1.2015482 6
-2.4070532 -6.8695297 -1.2671685 4
-2.3074923 -7.1129274 -1.4405391 3.2268519
5.846302 -6.9717045 -1.4080982 5.5138254
-6.2354198 -6.793108 -1.4999598 5
-5.8330946 -6.7142367 -1.4125845 4
-2.4025726 -6.6271138 -1.4950366 2.1620789
-2.365037 -6.4485192 -1.3717644 2.8070068
5.7735872 -6.5696535 -1.4276692 4.9374104
-4.0255346 -6.1732082 -1.5984976 2
-3.8095865 -6.1270418 -1.4860384 2.5000305
-2.3151543 -6.3083649 -1.5296081 1.2563858
5.7568226 -6.1364861 -1.3602679 5.0174623
6.1583939 -6.0057077 -1.5251234 4.0687256
6.9527359 -6.0596247 -1.5199281 5
7.2892632 -6.0921278 -1.5712067 5
8.159956 -6.2861686 -1.3128669 7
8.5209627 -6.2304888 -1.351047 7
-3.2613103 -5.9810953 -1.4634748 2
-3.0527604 -5.7828579 -1.3891602 2.0608773
-2.5674782 -5.6754594 -1.3460881 1.8010721
5.8316908 -5.9590449 -1.4230115 4.4261971
6.1031914 -5.9516764 -1.3407516 5.2871351
7.132256 -5.8363886 -1.5195634 5
7.2410345 -5.7483559 -1.5235684 5
7.6063528 -5.6699018 -1.5679722 5
-13.869959 -5.3309345 -1.3181145 8.333334
-2.8284216 -5.378839 -1.3975282 1.0052083
-2.6056931 -5.2753444 -1.2972267 1.5
-14.010238 -5.1420202 -1.32698 9
-13.877691 -5.1590562 -1.3066101 9
-10.21095 -4.9408288 -1.4029284 6
-10.533632 -4.7404318 -1.3979864 7
-10.202188 -4.6898665 -1.3890665 6.75
-9.7493343 -4.6024771 -1.3528428 7
-9.4115934 -4.6182165 -1.3728102 6.25
-9.1269531 -4.4375501 -1.2637248 7
13.699083 -4.4419107 -1.3073339 9
-14.584071 -4.1541338 -1.3442831 9
-8.9355602 -4.3973036 -1.231438 7
-8.450695 -4.1791859 -1.5278633 5.0073242
-8.2945614 -4.199317 -1.4559596 4.3771973
-7.8226089 -4.0308113 -1.3437772 5.25
-15.624054 -3.6324286 -1.4338292 9
-15.587101 -3.6227145 -1.4342327 9
-7.6175718 -3.955483 -1.4486635 4.5
-7.4705496 -3.9337201 -1.3758842 4.859375
-6.9455652 -3.8088186 -1.3799185 3.1646729
-6.5371609 -3.7010088 -1.3106842 4.0157776
-6.2467289 -3.6587424 -1.2771733 3.1245193
13.539173 -3.8384638 -1.2722824 9
13.65464 -3.84377 -1.2851279 9
-15.602009 -3.5991862 -1.4209028 9
-15.367252 -3.5017223 -1.401916 9
-6.037179 -3.5430291 -1.4974226 2
-5.7759075 -3.4620402 -1.4326146 1.75
-5.3441553 -3.3657699 -1.4842925 0.109375
-4.8918991 -3.2436352 -1.2884674 1.5
-4.6232109 -3.1397393 -1.2826564 0.78125
-4.0407896 -2.9570262 -1.2018731 0
-14.861439 -0.40460417 -1.3085122 9
17.170376 -0.67256176 -1.594141 9
-14.958246 -0.33346137 -1.3195822 9
-14.57882 -0.17103544 -1.2805511 9
-14.341027 -0.11602749 -1.2575281 9
-13.26318 0.20119989 -1.3905947 8
-13.153971 0.21343476 -1.3818028 8
-9.3262444 1.0516782 -1.5191441 5
-8.9531479 1.1154752 -1.282485 6
16.255491 1.018214 -1.4998769 9
16.421089 0.87846255 -1.5197833 9
24.885292 1.0706596 -1.3360263 11
-8.5835238 1.238466 -1.5255339 4
-7.3691626 1.5141132 -1.3861403 3.5
-7.1428213 1.5951582 -1.2622348 4
12.534139 1.4234005 -1.5781066 7
16.031237 1.323607 -1.4855953 9
-7.1423178 1.6026866 -1.2607055 4
-5.2641354 1.8966588 -1.2664793 1
12.468239 1.9957199 -1.5783224 7
14.133978 1.7010145 -1.5467651 8
24.300764 1.7570184 -1.3051646 11
12.453819 2.0535052 -1.5818801 7
15.523348 2.2285635 -1.4356738 9
-4.806179 2.6126118 -1.2024812 2
13.766655 2.7536964 -1.5226493 8
15.401478 2.6585155 -1.4295139 9
23.489832 2.491889 -1.2601485 11
-4.6525202 3.0974488 -1.2638485 1
13.583601 3.0217924 -1.5050225 8
13.742011 2.826093 -1.5253806 8
23.304382 2.9695737 -1.2397658 11
8.8357773 3.5872703 -1.5717716 5
15.018097 3.3186488 -1.4021103 9
18.025871 3.5870142 -1.3882401 10
23.085102 3.4249492 -1.2422647 11
5.0014892 3.8615241 -1.4583493 1
5.5789404 3.9314778 -1.4660089 1.9921875
5.6334629 3.9475935 -1.4817295 1.96875
8.7519512 3.7679384 -1.5698435 5
8.8239708 3.6331501 -1.5728555 5
17.987751 3.7027884 -1.3891935 10
18.010624 3.6586144 -1.3920009 10
4.7011809 4.261117 -1.4699192 1
4.9541965 4.0126061 -1.474499 1
5.4747853 4.1079793 -1.4696772 2
5.9411163 4.240088 -1.4435773 3
6.0990343 4.1460934 -1.4612429 2.9756854
6.5340533 4.3866949 -1.3854289 4
7.3990369 4.3503947 -1.525597 4
8.393672 4.1870155 -1.5447669 5
8.5042534 4.1264453 -1.5560057 5
13.09155 4.3232059 -1.4858109 8
13.289795 4.0732822 -1.5065455 8
-5.0825481 4.7175217 -1.597945 1
5.1164422 4.5961256 -1.4819019 2
5.6652622 4.7656116 -1.4674689 3
6.2960291 4.6871014 -1.3791958 4
6.4396935 4.4484057 -1.3789785 4
6.9427047 4.7986751 -1.3837198 5
7.3597937 4.4044504 -1.5199856 4
8.1455536 4.6250515 -1.5417166 5
11.11195 4.598341 -1.494559 7
11.280758 4.4308977 -1.5072596 7
17.462433 4.6055479 -1.3557291 10
17.626808 4.4593439 -1.3746076 10
-5.2596235 5.1008024 -1.2628543 4
4.6127048 5.0992699 -1.4793882 2
4.8625107 4.8491316 -1.4743695 2
6.1880426 4.8921795 -1.3876276 4
6.9132662 4.8896732 -1.3787535 5
10.745522 5.1477327 -1.4754376 7
12.850122 4.8540668 -1.4833091 8
17.156168 5.1941514 -1.3437678 10
-5.3398952 5.3726254 -1.4831409 3
-0.15499982 5.4759698 -1.2043465 2
3.0152357 5.5540218 -1.4559584 1
3.4689262 5.465045 -1.4903923 1
3.8127069 5.2090931 -1.4946988 1
4.3379831 5.4357848 -1.495067 2
6.4815273 5.5206938 -1.3853512 5
7.2187634 5.4876928 -1.3125509 6
12.533813 5.2495418 -1.4658351 8
14.20075 5.3868122 -1.3818468 9
15.526917 5.5953684 -1.2188129 10
15.848854 5.5624347 -1.2517626 10
16.760235 5.5424261 -1.3267846 10
16.927799 5.4487705 -1.3383799 10
0.31009597 5.6961088 -1.2047758 2
1.1560282 5.9270258 -1.3799417 1
1.4065187 5.926734 -1.3161783 1.6965261
1.7076453 5.8926749 -1.3358079 1.6240845
2.9291818 5.6218038 -1.4718132 1
3.8289468 5.7055898 -1.4747756 2
4.1688747 5.8166132 -1.4691498 2.5
4.6288481 5.8756218 -1.4751022 3
5.4039383 5.7483997 -1.3850807 4
6.1839604 5.9235153 -1.3923882 5
6.4312763 5.603929 -1.3851076 5
6.8766861 5.8368168 -1.3034222 6
12.35029 5.6590991 -1.4627986 8
15.283168 5.7068157 -1.2093871 10
1.0010979 6.226676 -1.4481757 1
1.3214662 6.0980353 -1.2415767 2.6769605
1.7050142 6.2114449 -1.3358313 2.2616134
2.7143097 6.0253878 -1.4063954 2
3.0378168 6.2609339 -1.3765111 2.875
4.5448451 6.2581663 -1.3532819 4
5.1893244 6.0412364 -1.3998604 4
5.2740011 6.1053543 -1.3851347 4.2814941
5.9063854 6.0969534 -1.3770531 5
6.0197468 6.0984669 -1.394789 5
6.6580491 6.1849289 -1.3123066 6
13.729645 6.0772095 -1.3655846 9
15.195374 6.0485802 -1.2108037 10
15.200612 6.0512829 -1.2074349 10
-5.6242971 6.5523181 -1.5170753 4
0.35289988 6.6575003 -1.5364294 1
0.66345936 6.5195718 -1.510651 1
1.1902031 6.6244688 -1.4347892 2
1.2768896 6.5337267 -1.4168775 2
3.1500156 6.7512865 -1.3074923 4
3.4146888 6.7082253 -1.3208299 4
3.7913661 6.4932241 -1.3132843 4
4.0097561 6.4842825 -1.3343554 4
4.5496168 6.719471 -1.310294 5
5.4410491 6.6575661 -1.2379998 6
5.7175531 6.5986404 -1.2540984 6
6.4462767 6.4194918 -1.3162377 6
11.674154 6.6333265 -1.4423637 8
13.162425 6.6775656 -1.3355563 9
14.882963 6.6145301 -1.2040201 10
-5.7518826 6.914577 -1.2795368 6
0.84527498 7.0624228 -1.5236491 2
1.993556 6.8273382 -1.3983819 3
2.0149264 6.8248692 -1.3946471 3
2.538702 7.1856499 -1.3348331 4
3.0944643 6.8542209 -1.3114315 4
4.2215028 6.9507551 -1.3129442 5
4.7699018 7.1868167 -1.2387153 6
4.9988823 7.0106792 -1.235702 6
14.861073 6.8489799 -1.2090266 10
-5.8735542 7.4786196 -1.5416962 5
0.88349217 7.4739213 -1.4832156 3
1.4097602 7.4623756 -1.3693004 3.7180138
2.1976786 7.3676424 -1.3413085 4
2.667305 7.215323 -1.3428359 4
3.4082422 7.5440044 -1.3366029 5
4.0900688 7.2307444 -1.3413897 5
4.6913033 7.3843508 -1.2563448 6
6.3453565 7.2751641 -1.2040168 7
6.4594026 7.2587824 -1.2150593 7
7.033639 7.4484253 -1.2955108 7
11.096302 7.258872 -1.4222218 8
12.68152 7.3989868 -1.329013 9
14.656846 7.2361927 -1.2119099 10
-6.1257467 7.8639917 -1.2338554 7
1.1410365 7.9102025 -1.3982116 4
1.3324825 7.824995 -1.3874555 4
3.1688676 7.9442701 -1.2222495 6
3.3433282 7.9120407 -1.3917774 5
4.3966246 7.8889341 -1.3013699 6
4.6332626 7.7306833 -1.2979733 6
10.305779 7.9574432 -1.3917143 8
10.616385 7.616488 -1.3947754 8
12.295555 7.9415679 -1.3244661 9
12.427782 7.8756433 -1.3330196 9
14.224754 7.9290314 -1.2041535 10
-6.3121204 8.2684927 -1.2965422 7
0.51017988 8.2582998 -1.4507272 4
0.90994263 8.1768456 -1.4173887 4.1972656
3.5875516 8.0514622 -1.2655016 6
3.6950681 8.0633402 -1.2735391 6
6.1151991 8.2741394 -1.30022 7
10.314812 8.0842733 -1.4024308 8
12.071653 8.2644205 -1.3235202 9
14.171794 8.0378494 -1.2034022 10
-6.3859982 8.7987585 -1.3181764 7
0.65995681 8.6256075 -1.3978873 5
1.0112689 8.4476385 -1.3737786 5
2.7440391 8.7809954 -1.5189066 5
3.030472 8.6708612 -1.4980845 5
3.2801528 8.5717144 -1.4953867 5
5.430336 8.6787758 -1.2911748 7
5.7836828 8.6749077 -1.3193995 7
6.0407386 8.6513023 -1.3380389 7
9.9966507 8.4500952 -1.395925 8
10.010414 8.4370527 -1.3967596 8
11.971365 8.5611868 -1.3302319 9
13.828537 8.5294504 -1.2014276 10
-6.4781137 9.0934429 -1.3796384 7
-6.3805027 8.95788 -1.3192277 7
0.47153464 8.986702 -1.2921908 6
2.6888309 8.8916264 -1.5164745 5
2.8364401 8.8253441 -1.5126722 5
5.5883656 8.8009052 -1.3237081 7
5.8123827 8.8566303 -1.344277 7
6.0512457 8.8050385 -1.3563837 7
9.4561729 8.9420204 -1.3876204 8
11.90423 8.9458084 -1.3500334 9
13.458635 9.1956291 -1.2036593 10
-6.5350142 9.2385159 -1.4166558 7.0423179
-6.3938694 9.2311459 -1.3526592 7
13.398991 9.373785 -1.2065456 10
-6.6050482 9.7617817 -1.2199674 8
10.984401 9.6010933 -1.310737 9
-6.6955705 10.164887 -1.2961986 7.875
12.79941 10.04854 -1.2010524 10
12.8374 10.089642 -1.2023032 10
-6.8221502 10.649833 -1.328686 8
-6.7346563 10.452703 -1.4133666 7.5
9.3134241 10.776785 -1.277164 9
-6.9175553 11.084151 -1.3688767 8
3.0293214 11.197904 -1.4851507 7
8.9234829 11.097004 -1.2759483 9
-6.9654093 11.276492 -1.398904 8
2.9674096 11.272263 -1.5006255 7
13.886602 11.55761 -1.3553869 10
-7.1473584 11.982444 -1.4793457 8
13.18461 11.984091 -1.332467 10
13.294693 11.97018 -1.3376684 10
13.835896 11.611652 -1.353076 10
-7.209415 12.242661 -1.4666429 8.1875
-7.1776114 12.271919 -1.3752496 8.5026093
12.78581 12.208302 -1.3199604 10
13.140234 12.028382 -1.331779 10
-7.2210693 12.429262 -1.2729928 9
1.5758498 12.649225 -1.3412881 8
1.7867583 12.713739 -1.353112 8
11.902381 12.59154 -1.2866931 10
12.208564 12.540705 -1.3034306 10
12.481849 12.473675 -1.3156433 10
-7.4432225 12.945208 -1.5970852 8
1.9778248 12.863703 -1.3772578 8
4.0400281 13.195351 -1.229872 9
11.185356 12.957924 -1.2676754 10
2.3841209 13.380192 -1.4484698 8
2.4215021 13.370062 -1.4452105 8
4.049983 13.238237 -1.2253842 9
10.745869 13.380508 -1.2712469 10
-7.7734399 14.282311 -1.4872808 9
-7.8629494 14.761148 -1.5040935 9
-7.7761025 14.958019 -1.2893909 9.750062
-7.5903044 15.157204 -1.5306304 9
-7.3534555 15.270595 -1.2211275 10
-6.9962196 15.426661 -1.304657 9.7250967
-7.0547495 15.68889 -1.2499593 10
-5.9136133 15.992969 -1.5445881 9
-5.8917661 16.020397 -1.5425798 9
-9.8736153 24.286737 -1.3567511 11
-9.3186493 24.304323 -1.3424141 11
-9.2485542 24.467693 -1.3716388 11
-8.5526676 24.74411 -1.3613682 11
-8.2443151 24.926859 -1.3708669 11
7.8294177 -14.055811 -1.1855108 10
7.4873767 -12.779498 -1.075112 10
7.4185991 -12.104793 -1.0235534 10
7.3932023 -11.993662 -1.0105475 10
-0.25512314 -11.376739 -1.1828086 8
-1.3400915 -10.827365 -0.98615825 9
-1.3843335 -10.765099 -0.98056698 9
-1.6702816 -10.009315 -0.90465057 9
-1.5557659 -10.312262 -0.94000936 9
-1.8262043 -9.2799721 -1.1764493 7
6.4902639 -9.2795753 -1.0439116 9
-2.0130138 -8.8500643 -0.95931017 8
-1.8889873 -9.0846882 -1.0965034 7.3161011
6.4293475 -8.876606 -1.0028052 9
6.3022804 -8.5809546 -1.1675892 8
6.4196267 -8.663311 -0.98457956 9
6.1599331 -8.1460991 -1.1119075 8
-2.3680239 -7.6271601 -0.86317062 8
6.1251431 -7.7479563 -0.9094553 8.8518887
-2.4937615 -7.2515283 -0.82917088 8
-2.2066391 -7.531487 -1.1202401 6
5.9738936 -7.4484081 -1.0256715 8
6.1169229 -7.5686121 -0.87551999 8.9556208
-6.5127602 -7.0469966 -1.1519754 7.2048492
-6.3142776 -6.9369526 -0.98405588 8
-5.6109114 -6.8563557 -1.0887787 7
-5.5826473 -6.8418436 -1.0770241 6.9999962
-2.5118294 -6.8977885 -0.8600589 7.3953452
5.939003 -7.1102166 -0.98925781 8
6.030766 -7.0672359 -0.99417102 8
8.359272 -7.191093 -0.80272192 10
-5.5526476 -6.7955961 -1.077739 7
-5.0152006 -6.6276627 -1.0131627 6.75
-4.5644631 -6.542635 -0.98617083 7
-4.2948437 -6.5059261 -0.85759413 7.8515625
-2.4313521 -6.6197348 -0.95473647 6.3111439
-2.3637531 -6.4260368 -0.99748391 5.6629314
5.874897 -6.680696 -1.0027634 7.6252289
6.0036817 -6.6803293 -1.1157027 7
-2.9291563 -6.0048199 -0.8144806 7
-2.5249329 -6.2287245 -0.85385603 6.75
-2.3785708 -6.385478 -1.0313199 5.375
-12.839186 -5.6562157 -1.1454946 8
-12.639683 -5.6563959 -1.0341961 9
-2.8741531 -5.911108 -0.84503067 6.5614586
-2.55055 -5.9400711 -0.84238768 6.4561768
-12.924004 -5.4722815 -0.97085488 10
-2.8809772 -5.4400873 -1.0007286 5
-2.6687303 -5.3911448 -1.0688019 3.9999998
-14.342976 -4.8462729 -1.0626206 10
-2.8609276 -5.0450959 -0.93466902 5
-14.471863 -4.6850157 -1.0717896 10
-10.151838 -4.6809254 -1.0026205 9
-9.7933102 -4.6231632 -0.9732908 8.0625
-9.3755941 -4.5052018 -0.94579756 9
-8.5462437 -4.5625701 -1.0055401 7
-2.918138 -4.5467949 -0.86204731 5
-14.653935 -4.2108569 -1.0761678 10
-8.5445824 -4.294004 -1.180505 7
-8.250433 -4.2325726 -1.1514482 7
-7.7781668 -4.1041489 -1.065176 7.015625
-7.5293002 -4.0023193 -0.88608587 7.9375
-7.1074462 -4.0387983 -1.1469536 5
-3.0306883 -4.1993599 -0.82008463 5
-15.627877 -3.6101656 -1.1414807 10
-15.441933 -3.6073027 -1.1242375 10
-7.2893314 -3.9326651 -0.99202371 7.0999126
-7.1290989 -3.9183254 -0.99623978 6.71875
-6.5226946 -3.7252944 -1.0120256 6.328125
-6.2520123 -3.6279595 -1.1260145 4.289093
-3.2058191 -3.7705908 -1.1749625 0
-3.1498671 -3.7611887 -1.1413151 0.234375
-15.451067 -3.5873971 -1.1275597 10
-6.1079264 -3.578711 -1.1197251 5
-5.8141842 -3.552732 -0.89922553 6.2578125
-5.2990203 -3.4105313 -0.937356 5.5705566
-5.1632767 -3.3646438 -1.0041308 4.8958335
-4.5968504 -3.2200677 -1.0460961 3.25
-4.2256012 -3.2023757 -1.1525524 2
-3.825757 -3.2213423 -0.95251882 3
-3.261692 -3.4063363 -1.0547292 1.0445863
-3.1523895 -3.3089385 -1.0725293 0.86676025
-4.520051 -3.1853158 -0.99798626 3.6682041
-4.0848131 -3.0468943 -1.0815221 1.8501315
-3.7557673 -3.0639348 -0.99227333 2.1867733
-3.4240499 -2.9839716 -0.93677187 2.3697953
-3.0044904 -3.1931617 -1.1111172 0
-14.900167 -0.42598039 -1.048672 10
-14.913584 -0.39890987 -1.0401046 10
-11.469697 0.60976124 -1.0298903 9
-8.6661015 1.2707053 -0.89730334 8
-8.1594744 1.3134699 -1.1716101 6
-7.8747077 1.5283885 -0.85543728 8
-7.2309055 1.5718648 -1.1681592 5
-7.0608416 1.5683484 -1.1534536 5
-6.5392747 1.7751805 -0.81322092 7
-6.2379808 1.7533021 -0.88303995 6.0078125
-5.6266694 1.9088668 -1.1365297 3
-5.3439827 1.9716039 -1.0821759 3
-5.1953421 1.9756163 -1.0551082 3
-4.8544645 2.2176542 -1.1448109 2
-4.6562757 2.2323689 -1.0072331 3.0019512
-4.8134613 2.6212044 -1.1788187 2
-4.633749 2.7250643 -0.98280466 3.6875
-4.8192091 3.126013 -0.91876841 5
-4.6804152 2.9614525 -0.97343117 3.952795
-4.9194317 3.4324498 -0.98832607 5
-4.9765525 3.7751765 -1.006296 5
-5.0195923 4.1091518 -0.88430572 6
-5.2498193 4.5493417 -0.8396439 7
-5.1579328 4.5843592 -1.0798256 5
-5.2852216 4.8242445 -0.87124401 7
-5.5399389 5.4510856 -0.85651135 7.7343516
-1.420742 5.5068989 -0.90607208 5
-1.0820401 5.3522816 -1.0351163 3.3661394
-0.72040945 5.3700676 -1.1666852 2
-0.13758025 5.4968472 -1.1849935 2.0000687
0.1855676 5.5648966 -1.0356119 3.3329525
-5.6469293 5.819417 -0.91586649 7.5
0.2452745 5.7144289 -0.9637568 4.469101
1.4250163 5.9530592 -1.1787503 3
-5.6566639 6.1978102 -1.0525186 7
1.3108835 6.0714817 -1.1966403 3
1.6098258 6.004467 -1.198373 3
-5.8828187 6.7516108 -1.0867503 7
-5.8986468 6.901237 -1.1150482 7
6.1686964 7.1534004 -1.1773243 7
1.5163789 7.5962791 -1.0913968 6
5.9950476 7.2095551 -1.1694584 7
6.0462732 7.2007027 -1.1669732 7
24.152546 7.5226755 -0.91412699 12
-6.0998869 7.8924017 -0.86697495 9
1.4794228 7.614665 -1.0930364 6
3.3575454 7.9869576 -0.91714537 8
14.217308 7.846055 -1.1970868 10
23.64946 7.8981857 -0.89694679 12
-6.2715507 8.2077236 -0.90566635 9
3.1227384 8.2672577 -0.99871838 7.5200224
3.3638859 8.0393982 -0.92127848 7.9062548
3.7444222 8.2537346 -1.0057385 7.6718364
4.0701151 8.3575668 -1.1574532 7
4.6329451 8.390089 -0.84202433 9
13.978712 8.1376839 -1.1918421 10
14.173702 8.0412712 -1.1994663 10
22.466206 8.3998795 -0.84860981 12
22.894524 8.1197376 -0.86837983 12
3.9347601 8.4848213 -1.1591858 7
4.6268749 8.4054041 -0.840729 9
5.0583954 8.4746923 -1.0590472 8
5.4995394 8.5301495 -1.093375 8
5.7920427 8.6570454 -1.0262157 8.5248718
6.213315 8.748064 -1.0692337 8.4999847
13.734997 8.6079969 -1.1953903 10
21.532864 8.778532 -0.82451695 12
21.656809 8.6947498 -0.8240397 12
22.206787 8.4735832 -0.84069622 12
22.462856 8.4487305 -0.85479057 12
-6.4833851 9.1451216 -0.96157807 9.1886024
6.2057753 8.8100891 -0.97367507 9
21.51564 8.8784294 -0.82653826 12
-6.5262604 9.4059277 -1.0986372 8.5001221
1.0849493 9.5186758 -0.83567053 9
12.933733 9.5783901 -1.1813715 10
12.749692 9.9909782 -1.1926718 10
12.912359 9.6432819 -1.1867003 10
12.793753 10.044744 -1.1940939 10
12.829775 10.05322 -1.1988122 10
16.900013 11.291615 -0.81441545 12
-7.1123285 11.965138 -0.96417898 10
-7.1392407 12.047998 -0.97037864 10
-0.14644349 12.301114 -0.90439528 10
0.96766359 12.359428 -0.91370726 10
1.2077168 12.361711 -0.9124108 10
-0.079126969 12.416462 -0.91903687 10
-7.7631454 14.177237 -1.1620457 10
0.17881414 15.059305 -1.0717471 10
11.822592 17.197308 -0.83685994 12
11.92265 17.242275 -0.83676273 12
11.236045 17.731331 -0.83678854 12
-7.8307629 18.837158 -0.80783319 12
-9.0728292 24.119373 -0.88674164 12
9.4656277 -20.921501 -0.52316809 13
9.4572392 -20.677313 -0.5130626 13
8.0782881 -12.63518 -0.54248339 12
-1.4520519 -10.865351 -0.59203172 11
-1.4996898 -10.649809 -0.50723815 11.375977
-1.6093135 -10.089418 -0.67197335 10.25293
-1.5865163 -10.11429 -0.71914846 10
6.3726153 -9.3384113 -0.43659902 12
6.5278096 -9.2379389 -0.43402776 12
6.9726253 -9.3921394 -0.45664331 12
6.2331424 -8.9726038 -0.41336536 12
6.481637 -9.1233463 -0.42779607 12
7.5455761 -8.9502153 -0.45963126 12
6.3504267 -8.6329174 -0.40303168 12
6.4461966 -8.6941929 -0.40894514 12
7.4888673 -8.7645073 -0.45297062 12
-2.195869 -8.1212292 -0.60858774 10
-2.2409139 -7.884665 -0.48277617 10.709636
8.3762407 -7.6767449 -0.43927145 12
8.4435177 -7.7023921 -0.44600704 12
-2.5164375 -6.9146309 -0.71418166 8.4836655
8.2276573 -6.9592867 -0.78104246 10
-5.3031416 -6.7143335 -0.61711866 9.9999962
-4.8607078 -6.5996337 -0.43425256 10.999969
-4.5472126 -6.509439 -0.67882681 9.25
-4.1433601 -6.4158792 -0.52630001 10.044678
-2.5052309 -6.6724463 -0.70570672 8.3203125
-4.0476537 -6.355442 -0.65964389 9.03125
-3.7410688 -6.2773657 -0.63811433 9
-3.3053756 -6.2793956 -0.74304748 8
-2.5088902 -6.2850647 -0.48946077 10
-2.8289344 -5.7293043 -0.56139582 9.0635452
-2.6058383 -5.8830929 -0.59361029 8.7031231
-2.7372394 -5.5514112 -0.43092275 10
-14.295969 -5.0688162 -0.47665197 11.5
-9.7919703 -4.9489274 -0.55622846 10
-10.245989 -4.6943026 -0.47398859 11.640625
-9.8475332 -4.6320972 -0.59652084 10.687622
-9.4750166 -4.5537825 -0.59880811 10.546875
-8.549614 -4.4407039 -0.55619943 10
-3.0384502 -4.723413 -0.40421152 10
-14.904787 -4.2103176 -0.53333855 12
-8.3976116 -4.3240514 -0.53685319 10
-7.2720671 -4.0208435 -0.55680662 10
-3.3895307 -4.0318298 -0.56079435 8
-3.0355554 -4.2272415 -0.7401582 6
-15.625101 -3.7682035 -0.60330409 12
-7.2087517 -3.9418607 -0.43731689 10.875
-7.0551844 -3.8836036 -0.63761073 9.5173473
-6.6608591 -3.8310401 -0.561813 9.5
-5.724535 -3.6357319 -0.52488899 9
-3.3346422 -3.9751179 -0.55020177 7.9921875
-3.1413589 -3.7862508 -0.74920529 5.2842216
-5.6953135 -3.5622149 -0.55363429 9.2379589
-5.3645296 -3.5000958 -0.59144491 8.6803398
-5.1526709 -3.4322219 -0.47195804 9.5075684
-4.1517429 -3.2348132 -0.55978823 8
-3.3514097 -3.4234967 -0.49139994 7.9999895
-3.0725768 -3.3880455 -0.63429308 5.9999962
-4.0962963 -3.078285 -0.53814048 7.9949236
-3.8859744 -3.0198724 -0.67140406 6.1331038
-3.3402243 -2.9788275 -0.55306983 6.7299423
-3.1759291 -3.0153179 -0.61008847 5.875
-14.943556 -0.40323487 -0.50166541 12
-14.976505 -0.38470083 -0.50194341 12
-11.28407 0.66522944 -0.59639198 11
-10.52965 0.87060785 -0.54167843 11
-10.08209 0.95246118 -0.52334154 11
-9.9176655 0.99324924 -0.51522136 11
-8.5618286 1.3064551 -0.61997122 10
-8.0507507 1.4273976 -0.57667422 10
-7.6768522 1.5011904 -0.41216648 11
-7.3748903 1.6311382 -0.79516596 8
-7.0573621 1.7287529 -0.76315856 8
-6.5379725 1.7604386 -0.4803099 10
-6.1830091 1.9050837 -0.66846609 8.0004883
-5.2517867 2.0803633 -0.4025377 10
-4.9959221 2.1255138 -0.5219509 8.3958759
-4.6763387 2.1870093 -0.67386699 6.5521946
-4.7376146 2.6810939 -0.50084698 8.6776314
-4.8364973 3.0812309 -0.57619262 8.1295776
-4.7376676 2.9126043 -0.48747003 8.8749084
-5.2163959 3.9944489 -0.58296609 9
-5.0493183 3.8762913 -0.71035779 7.5442724
-5.2192307 4.0764446 -0.62927347 8.4637346
-5.1892328 4.3426733 -0.50582141 9.75
-5.1951427 4.4128151 -0.48382515 10
-5.3931413 5.1689663 -0.64516586 9
-5.4895287 5.43011 -0.54453725 9.9375
-5.609868 5.9463501 -0.53120553 10.288696
-5.5839367 5.8927393 -0.6468851 9.4887695
-1.0011027 5.7315078 -0.60241985 8
-0.65883827 5.7685194 -0.60100091 8
-0.28960699 5.8986101 -0.61546147 8
-5.6272001 6.0137959 -0.43729424 10.96875
-1.5573118 6.1650381 -0.67701983 8
-0.6607824 6.3870173 -0.56787539 9
-0.065198623 6.0291443 -0.63151908 8
0.08537294 6.2094717 -0.65966606 8
1.5238173 6.2402153 -0.4995963 9.625
1.6533289 6.2232628 -0.46694291 9.8983917
18.599319 6.2514887 -0.45293444 13
-5.7506275 6.4779873 -0.62037075 10
-1.6613772 6.5454454 -0.48264849 10
-1.4134644 6.5920496 -0.4811697 10
-0.92095393 6.438323 -0.577555 9
-0.53355205 6.5497808 -0.58634579 9
1.4561729 6.4310064 -0.58997381 9
17.806908 7.0975857 -0.43005043 13
5.9871817 7.3595076 -0.48754916 11
6.2149286 7.2486725 -0.49001759 11
17.430153 7.5552931 -0.42769098 13
17.705788 7.331913 -0.43420541 13
-6.1682787 7.9751906 -0.50985599 11
-1.39854 7.7184653 -0.54759252 10
17.127598 7.9654584 -0.42587936 13
-6.2494621 8.1802883 -0.6432901 10.35066
17.071892 8.0766945 -0.42228204 13
-6.3709269 8.5947199 -0.40552843 12
4.3405485 8.4638157 -0.48489746 11
4.6684685 8.4902744 -0.50236821 11
5.01406 8.5862284 -0.51876009 11
5.3389149 8.5091782 -0.56366563 10.791505
5.6141863 8.5491552 -0.72181219 10.000488
6.1834316 8.7451572 -0.76601887 10
-6.4148674 9.1168165 -0.78185081 10.015625
-6.3860416 9.1213493 -0.7856518 10
3.087528 9.0003738 -0.48275548 11
6.1700048 8.9236002 -0.58427858 11
-6.5093746 9.2720118 -0.60004675 11
12.971128 10.752315 -0.63535726 12
13.295589 10.533335 -0.64211452 12
16.315571 11.132721 -0.786443 12
16.542709 11.184056 -0.79609585 12
12.983264 11.467758 -0.65974903 12
16.693943 11.25996 -0.43348753 13
-7.0532956 11.706142 -0.44334441 12
-7.2711134 12.511932 -0.49830374 12
12.835627 12.7073 -0.69659668 12
12.165015 13.099397 -0.68527818 12
13.333275 12.999742 -0.72438806 12
13.761984 12.908779 -0.73745829 12
12.130173 13.772282 -0.59088302 12.375
-7.7824116 14.14401 -0.58007091 12
12.178919 14.021666 -0.40537012 13
-7.8733521 14.964188 -0.6113838 12
-8.0291433 15.550384 -0.6430788 12
-7.9851003 15.415554 -0.64139462 12
-7.5099707 15.532132 -0.61916375 12
-7.0776014 15.467653 -0.6257214 12
11.848438 15.330395 -0.40173936 13
-7.0206537 15.748527 -0.61940199 12
11.486423 15.961734 -0.77141565 12
11.483974 16.044518 -0.77544379 12
11.589352 17.250153 -0.44473636 13
11.606014 17.213167 -0.44247943 13
11.188693 17.912724 -0.45420742 13
11.231522 17.802273 -0.45122701 13
-7.848824 18.77906 -0.77462387 12
-7.819375 18.917271 -0.5889287 12.504718
10.531599 -22.673225 -0.17296085 14
9.7983875 -20.088984 -0.13552457 14
9.991169 -19.796267 -0.13222754 14
10.206573 -19.911308 -0.13386884 14
9.1940994 -19.224579 -0.11598682 14
9.7384195 -19.213114 -0.12865628 14
9.6586552 -18.946728 -0.11510065 14
10.45468 -19.07091 -0.12281563 14
-0.99320376 -14.21603 -0.070138246 14
-0.64021796 -14.03808 -0.06666714 14
0.18528634 -14.056583 -0.070894338 14
0.2103451 -13.968006 -0.068624601 14
7.5230384 -12.269649 -0.089517057 14
7.1814055 -11.652952 -0.075008333 14
7.2984776 -11.652189 -0.082609653 14
-0.45304775 -11.410301 -0.076492831 14
0.61253417 -11.335489 -0.21954969 13
7.1664114 -11.33383 -0.066614561 14
7.3123174 -11.24962 -0.067215599 14
9.2730246 -11.274418 -0.10074951 14
-1.3961198 -10.913696 -0.063967332 14
9.0164156 -10.919596 -0.089944988 14
-1.5027423 -10.604053 -0.38591772 12.03125
0.28868675 -10.501379 -0.055100672 14
0.40779158 -10.463187 -0.055655159 14
8.5816174 -10.402833 -0.069294252 14
8.9716358 -10.732909 -0.081764355 14
-1.6451671 -10.218958 -0.059370756 14
-1.595679 -10.218719 -0.20724574 13
0.39019096 -10.37402 -0.052202821 14
6.3222003 -10.070796 -0.24600822 13
6.4197135 -10.350964 -0.25946519 13
-1.6868055 -9.9773579 -0.36676955 12
6.2284546 -9.7007313 -0.18719146 13.3125
6.4067249 -9.621666 -0.091187768 14
-1.7750704 -9.3180866 -0.27071393 12.373779
6.3380837 -9.4668264 -0.22599557 13.003906
6.4601474 -9.3368301 -0.2247183 13
-2.0003138 -9.0124235 -0.30600601 12
-1.9405546 -9.0059547 -0.28099883 12.178198
6.167625 -8.8428459 -0.20288613 13
5.9037704 -8.5387669 -0.38340479 12
6.1669345 -8.5215397 -0.39072007 12
6.4149442 -8.4906712 -0.39674836 12
-2.2172637 -8.1171741 -0.17290437 13.020795
5.8995028 -8.2110195 -0.05254769 14
6.2851553 -8.1963568 -0.14062132 13.494629
6.6043959 -8.1244488 -0.25891486 12.800781
6.8628664 -8.0894403 -0.067054361 14
-2.4031734 -7.8449097 -0.28452933 12
-2.3568611 -7.8699183 -0.24743348 12.274286
6.2406745 -7.8616705 -0.052286297 14
6.6471519 -7.8753614 -0.3453508 12.210938
8.2784233 -7.7240181 -0.091844574 14
13.012535 -7.9506207 -0.11419626 14
6.7183542 -7.2155776 -0.04791604 14
7.4720883 -7.3595514 -0.066502824 14
7.7709026 -7.4430113 -0.073376484 14
-5.1293344 -6.8091259 -0.29697913 11.875
6.1858902 -6.8486261 -0.19518752 13
6.7128401 -7.132884 -0.099937521 13.675944
6.8019719 -7.192203 -0.048215162 14
7.2533822 -7.1523347 -0.057453096 14
9.0429029 -6.9414048 -0.089772068 14
-5.2460976 -6.5848742 -0.17711587 12
-5.1291952 -6.7916627 -0.29677051 12.003906
-4.5147038 -6.5286045 -0.0580201 13.798713
-4.1927567 -6.4334869 -0.053561132 13.7822
-2.526984 -6.5017395 -0.091973521 13.408325
-2.071281 -6.4074411 -0.11403436 13
6.383049 -6.6993427 -0.19527876 13
6.4128237 -6.6155972 -0.19415438 13
8.8903484 -6.67448 -0.082843184 14
-4.0368786 -6.3877535 -0.20662618 12.5
-3.9423733 -6.3677993 -0.030651264 13.875
-3.3451893 -6.2363424 -0.12988122 13
-2.9205334 -6.0946898 -0.075381026 13.476328
-2.6605711 -6.0482407 -0.14831463 12.770759
-2.2337155 -6.3653097 -0.11488685 13
-2.8945293 -5.7847371 -0.25974491 11.755127
-14.027599 -5.2328281 -0.25846389 13
-13.081534 -5.5037346 -0.049080789 14
-14.272625 -5.0820284 -0.25490403 12.5
-10.839223 -4.8648567 -0.21699113 13
-3.0048251 -4.8181467 -0.12207849 12.88435
-14.537506 -4.6446843 -0.07005392 14
-10.185059 -4.6737638 -0.39809486 12
-9.7528133 -4.5743313 -0.37547082 12
-9.1550455 -4.4235249 -0.35033298 12
-8.383215 -4.4526453 -0.16567102 12
-2.9939687 -4.6153069 -0.14870629 12.528133
13.714388 -4.4700718 -0.097638011 14
-15.012353 -4.0995727 -0.079914965 13.984375
-14.751995 -4.2375388 -0.26174679 13
-8.5655804 -4.2582798 -0.22246477 12.558855
-8.2684994 -4.21452 -0.29248908 12.031738
-7.807446 -4.0660324 -0.15773912 13
-7.4886756 -4.0463085 -0.26409382 12
-3.3205934 -4.0015035 -0.09717112 13
-15.568264 -3.7337384 -0.2843374 13
-7.6145501 -3.9918461 -0.14541076 13
-7.389946 -3.9352202 -0.14951223 12.625
-7.1220379 -3.9711754 -0.29223359 11.5
-6.5303888 -3.7715445 -0.04099438 14
-6.2116852 -3.7071648 -0.23874867 12.037115
-5.8075438 -3.6369867 -0.033430561 13.985352
-3.3994637 -3.6141677 -0.081120491 12.999883
-5.4657545 -3.5426643 -0.065747991 13.875
-4.9050145 -3.4236624 -0.17873004 12.445312
-4.7208014 -3.2541976 -0.060793135 13.588909
-4.1472635 -3.2400136 -0.16550517 11.999756
-3.7623262 -3.2670388 -0.17686637 11.75
-3.3409729 -3.3195019 -0.14636512 12.153367
-3.1204906 -3.2809486 -0.16590253 12
-4.8438058 -3.1536858 -0.10982087 13
-4.5097513 -3.0495729 -0.071845144 13
-4.0860758 -3.0970528 -0.23986694 11.091148
-3.7710657 -3.1133523 -0.12627517 12.507727
-3.4087768 -3.0312538 -0.20057675 11.394087
-3.1575208 -3.1252275 -0.16037074 12
-14.915359 -0.42341501 -0.059666894 14
-15.012856 -0.3757987 -0.073569298 14
-14.557039 -0.15068841 -0.052661143 14
-13.642328 0.0068105049 -0.0025811195 15
-12.996405 0.25992382 -0.25470757 13
-11.669743 0.56702554 -0.0644098 13.999992
-10.963608 0.73400664 -0.059381064 14
-10.731033 0.77615857 -0.21748672 13
-9.3809023 1.1306458 -0.32486641 12
-9.1735516 1.1653507 -0.2892729 12
-8.1964865 1.4404159 -0.28434375 12
-7.6524706 1.5331104 -0.058256559 13.75
-7.5042033 1.5928788 -0.20740677 12.375
-7.6025152 1.6028814 -0.25281292 12
-7.4057665 1.6184916 -0.18988225 12.501809
-6.6507607 1.8023639 -0.031204712 14
-6.3189774 1.8514057 -0.21644859 12.195312
-5.9546442 1.9173698 -0.32544398 11
-5.6073523 2.0551701 -0.2109963 12
-5.3583822 2.0697773 -0.29183295 11.091098
-4.903739 2.1324561 -0.097996026 12.871982
-4.6671925 2.2092469 -0.25685403 10.990417
-4.8685594 2.6059294 -0.2842949 11
-4.6257172 2.6758051 -0.0053435341 13.99425
-4.8316622 2.9190938 -0.23332618 11.713324
-4.6992593 2.9175205 -0.1941824 11.935717
-4.8747215 3.2503076 -0.068711385 13.469042
-4.7929134 3.2409759 -0.021059681 14
-5.2314439 3.8942463 -0.027278634 14
-5.1492491 3.8475475 -0.088473134 13.5
-5.277504 4.2401605 -0.034736332 13.9375
-5.1438398 4.0819483 -0.33879757 11
-5.2968879 4.427825 -0.032174386 14
-5.4241419 5.0962796 -0.13983741 13
-5.5199971 5.4743452 -0.38204849 11.09375
-5.6024609 5.8438811 -0.040281788 14
-5.5767441 5.8437858 -0.027408674 14
3.550864 5.7923632 -0.12102801 13
-5.7752571 6.2140903 -0.28685728 12
1.4366592 6.3324084 -0.34007829 11
1.6842396 6.2952113 -0.3435868 11
3.0669322 6.0549536 -0.11867148 13
-5.7722607 6.7073774 -0.043922275 14
-5.9153929 7.1788945 -0.29554302 12.000006
-1.5508702 7.0779209 -0.13519114 13
-6.09443 7.4425387 -0.35493684 12
-5.9369397 7.3099937 -0.27051783 12.247742
-0.55529726 7.3558817 -0.14323789 13
-0.36180344 7.4278936 -0.14730224 13
6.0974054 7.2795115 -0.36775762 12
-6.1195345 7.741992 -0.024899282 13.994339
-5.9478416 7.6157913 -0.18840364 13
-1.6318696 7.8092508 -0.024195701 14
-1.5850662 7.7579708 -0.022719931 14
-0.85434473 7.8090978 -0.020088861 14
-0.78551608 7.9701376 -0.026893787 14
1.6148187 7.99299 -0.28068388 12
-6.3262854 8.231987 -0.039929736 13.96875
-0.72510386 8.1152248 -0.030068882 14
1.6407284 8.0148849 -0.27981707 12
3.5559905 8.3907852 -0.34462753 12
4.3145733 8.3893051 -0.31817821 12
-6.4375439 8.6721506 -0.045189328 14
-6.3431091 8.540987 -0.37004143 12
-2.1836674 8.787364 -0.3515808 12
0.7886281 8.7721767 -0.053560045 14
1.362547 8.7964869 -0.1673412 13
3.4243059 8.4573269 -0.33999968 12
3.7615156 8.4540749 -0.34843582 12
4.3565207 8.4688358 -0.33224857 12
4.6622262 8.6553917 -0.14226314 13.38365
4.8268757 8.7212048 -0.044058431 14
-6.5465102 9.135582 -0.056197517 14
-2.1968014 8.8387852 -0.32935107 12
0.34838685 8.9250011 -0.067039207 14
1.0714388 9.090517 -0.33472109 12
1.4042556 8.9311638 -0.18092711 12.9375
3.1963136 9.0604706 -0.37071252 12
3.2214129 9.0546513 -0.36906344 12
-6.5287123 9.3606243 -0.20747612 13
-0.31691575 9.3419847 -0.30751097 12
1.1269057 9.2823544 -0.33486089 12
1.4532769 9.3534985 -0.3161478 12
3.3927979 9.3737049 -0.040385015 14
-6.5990744 9.7010002 -0.068696007 14
-0.23722681 9.6506491 -0.36801636 12
1.118628 9.6132812 -0.34763193 12
1.3730798 9.7477369 -0.33850515 12
19.429787 10.390691 -0.13334572 14
19.952965 10.336035 -0.14412825 14
20.058918 10.37138 -0.14264986 14
18.214794 10.696044 -0.12152709 14
18.482378 10.675398 -0.12206826 14
19.373764 10.403093 -0.13038033 14
-6.9421177 11.152794 -0.26337337 13
17.926838 10.977359 -0.11826997 14
17.938229 11.52878 -0.12282875 14
18.02771 11.301738 -0.12201059 14
-7.0754337 11.787193 -0.04078785 14.030718
17.666668 11.777016 -0.12173086 14
17.715034 12.207767 -0.12596333 14
12.981743 12.758331 -0.39458114 13
17.781736 12.45623 -0.12785864 14
2.7584293 13.153975 -0.053548571 14
12.790328 12.949141 -0.36641139 13
12.934847 12.894419 -0.37746286 13
3.9231467 13.42085 -0.067948297 14
4.2375631 13.503317 -0.07069926 14
4.4876394 13.586826 -0.074128993 14
4.5036764 13.610161 -0.075009093 14
12.125774 13.983511 -0.39802814 13
12.182271 14.030678 -0.39955306 13
-7.8259835 14.439823 -0.31068534 13
4.1289411 14.780677 -0.095028095 14
-7.9321795 15.194683 -0.12099687 14
4.1125069 14.800454 -0.096331492 14
-7.9475121 15.336802 -0.11237476 14
-7.2397604 15.45656 -0.29682133 13
-7.0021019 15.545903 -0.32932881 13
11.861639 15.323051 -0.39851415 13
14.124773 15.554332 -0.11130269 14
-7.0180554 15.631053 -0.33459386 13
13.095816 16.421722 -0.10750307 14
12.992285 17.557442 -0.12086859 14
12.919232 17.631842 -0.12215465 14
-7.7575932 18.857288 -0.3966049 13
-9.0920181 19.569212 -0.097304583 14
-9.3099251 20.377806 -0.096848033 14
-9.3749065 20.83629 -0.10941344 14
10.217565 23.989038 -0.17776251 14
10.231384 24.018303 -0.17742886 14
12.093079 24.374958 -0.20283401 14
9.7307844 24.751286 -0.18518205 14
12.687757 24.520088 -0.20404103 14
12.800214 24.575891 -0.21131869 14
9.7216702 24.884119 -0.18536013 14
9.1723003 -20.388268 0.011430354 15
6.9506097 -11.240272 0.011151368 15
7.2716856 -11.276068 0.0036163032 15
7.0497794 -11.159641 0.0086458744 15
7.2784691 -10.907269 0.011326358 15
6.8556099 -10.326221 0.023869261 15
-1.7488041 -9.6163406 0.02065729 15
7.5267773 -9.635643 0.02635897 15
-1.7726891 -9.5406418 0.024495168 15
-2.007977 -9.0196638 0.029186327 15
-1.9472604 -9.0930824 0.033724003 15
5.8652368 -8.0342093 0.0056798859 15
5.9318018 -7.9238243 0.0059782187 15
-2.5026646 -7.0962539 0.015965186 15
6.3130574 -7.0420609 0.017142881 15
6.5159864 -6.827158 0.016311843 15
-4.6052856 -6.4564462 0.041271649 13
-3.8380871 -6.4228077 0.032097168 15
6.6621008 -6.7176723 0.015690701 15
-3.6971788 -6.3776369 0.051550873 14
-2.8920813 -5.6212969 0.025130466 15
-2.7355552 -5.6545439 0.026030842 15
-11.90806 -5.216496 0.045830507 15
-2.8443098 -5.5649133 0.021903116 15
-2.7407842 -5.5682969 0.030066609 15
-8.8591576 -4.366497 0.035614777 15
-8.62603 -4.3124866 0.034872256 15
-8.3086166 -4.2346492 0.043560602 15
-3.1041665 -4.0347676 0.043881349 14
-6.8082271 -3.88413 0.019501906 15
-6.4883842 -3.8039093 0.03890162 15
-6.3068023 -3.7861671 0.040751543 14.8125
-3.2561619 -3.934655 0.029166931 15
-5.4087434 -3.4765139 0.02777821 14.984375
-4.8648791 -3.368274 0.031730082 15
-4.1773872 -3.2479317 0.02046751 15
-3.1593645 -3.3559237 0.022822857 15
-4.1829586 -3.0754924 0.02652736 15
-3.3899002 -2.9995773 0.026727207 14.999939
-3.1899331 -3.1001525 0.024358019 15
-13.638764 0.029967671 0.032999627 15
-13.521753 0.074656829 0.042646687 15
-9.8746643 0.98569095 0.034067325 15
-7.6619959 1.5564897 0.030392062 15
-6.2045469 1.8475372 0.028331954 15
-5.8245788 1.9566612 0.031373613 15
-4.8029785 2.3044646 0.027123474 15
-4.7883911 2.3188648 0.0260194 15
-4.9510431 3.1650043 0.035154834 15
-4.9942465 3.4954782 0.029569339 15
-5.0942159 3.9756744 0.028386071 15
-5.098043 4.0148368 0.027307477 15
-5.4582376 4.9848566 0.040058341 15
-5.6028633 5.4895716 0.0094225537 15
-5.5767002 5.4848127 0.029325478 15
1.488399 6.1926908 0.02148639 15
-5.9172821 7.0964489 0.04522609 15
5.9257884 7.178658 0.023485299 15
5.9316335 7.2326794 0.023961872 15
-6.1026478 7.8436294 0.030032713 14.972656
4.0807924 8.5595179 0.023754152 15
1.2877226 9.1610565 0.026982896 15
4.0403085 9.0300674 0.015596915 15
4.5039907 8.8511162 0.013928 15
-0.01020842 9.2872725 0.034621842 15
0.68220311 9.2876501 0.033897497 15
1.4729917 9.3627701 0.028711798 15
0.74426764 9.7273846 0.015463895 15
-6.6922722 10.297266 0.053822555 15
19.927116 10.393753 0.0033279157 15
20.199623 10.388331 0.010626096 15
18.565655 10.732378 0.014024254 15
19.07682 10.615344 0.0096395165 15
19.355347 10.681536 0.0083782999 15
19.80088 10.569382 0.0052830209 15
20.030624 10.436958 0.0028630048 15
20.660856 10.441574 0.006669533 15
17.981466 11.183275 0.020098539 15
18.16596 10.978487 0.01641516 15
18.625366 10.97209 0.014077842 15
