# .PCD v0.7 - Point Cloud Data file format
VERSION 0.7
FIELDS x y z
SIZE 4 4 4
TYPE F F F
COUNT 1 1 1
WIDTH 1464
HEIGHT 1
VIEWPOINT 0 0 0 1 0 0 0
POINTS 1464
DATA ascii
6.9620056 -16.159435 -1.8026909
7.6213851 -16.010303 -1.8105628
8.1628351 -15.894747 -1.8277663
8.740325 -15.753521 -1.8463783
9.4040613 -15.629627 -1.8741896
9.6764927 -15.605203 -1.8873646
9.9897995 -15.310661 -1.8806758
10.193672 -14.874271 -1.8512213
10.289852 -14.675308 -1.8409364
4.7906256 -14.111975 -1.8372393
5.1137743 -13.98632 -1.8371568
5.538825 -13.81797 -1.837218
10.652018 -14.08713 -1.8116198
10.89699 -13.810778 -1.8052725
5.8468719 -13.674999 -1.8361821
6.3901572 -13.448593 -1.8400608
6.9605913 -13.286997 -1.8569183
7.2925596 -13.205683 -1.8712018
11.02445 -13.668554 -1.80287
7.440084 -13.137434 -1.8721857
8.2107525 -12.851261 -1.8952973
8.7390995 -12.648157 -1.9139459
8.9785767 -12.547439 -1.9233384
9.3156357 -12.361982 -1.9303046
9.7575417 -12.058703 -1.9362648
3.4559522 -9.6908855 -1.8028265
3.6357372 -9.6042843 -1.8076161
3.5942864 -9.5946808 -1.8346939
3.6513743 -9.5866728 -1.8020151
4.3879991 -9.1118393 -1.8008038
4.6614571 -8.948513 -1.8028765
5.1331782 -8.7016478 -1.8013139
5.5608883 -8.4472084 -1.8015347
2.8689275 -7.9905982 -1.8073857
3.1925809 -7.83601 -1.8027253
5.7802467 -8.2685204 -1.8012252
6.252192 -7.9707451 -1.8095
2.6032891 -7.2548409 -1.8043003
3.4431014 -7.6921344 -1.8010597
3.9060016 -7.4392157 -1.802242
4.3168378 -7.2213583 -1.8014522
2.8458765 -7.1543674 -1.8034617
3.258491 -6.9419103 -1.8034457
4.6271248 -6.9957581 -1.8013535
4.8617535 -6.6977463 -1.8013353
5.1861544 -6.3791232 -1.8012781
5.6176076 -6.0834985 -1.8014934
5.9151568 -5.9039903 -1.8028114
6.1879663 -5.6580195 -1.8038909
6.4107466 -5.2949591 -1.8062572
6.3125196 -4.319478 -1.8070331
6.9144845 -4.54354 -1.8052385
6.467968 -3.9123678 -1.804961
6.7163677 -3.6474614 -1.8048024
6.8110876 -3.3272512 -1.8126843
7.0245028 -2.7914913 -1.8136101
7.5686989 -22.803837 -1.6550685
8.0666676 -22.936756 -1.2143884
11.905236 -23.079887 -1.3238132
12.482 -22.806183 -1.3254042
7.751236 -22.746052 -1.655468
8.1232529 -22.544006 -1.4978175
8.6527653 -22.457943 -1.6608362
11.962857 -22.700575 -1.3041021
12.32437 -22.656254 -1.3152033
12.959869 -22.327965 -1.317995
7.9584413 -21.950031 -1.2144418
13.145954 -22.140541 -1.3159788
13.447327 -21.947693 -1.3154688
13.993179 -21.645855 -1.3187699
14.247427 -21.234344 -1.3075495
14.513172 -21.032955 -1.3073878
14.390446 -20.40801 -1.3146318
14.507927 -20.684166 -1.2901065
14.356796 -20.103439 -1.256501
14.821472 -20.083586 -1.2732997
15.272345 -19.824562 -1.27861
15.558233 -19.51181 -1.2753484
15.639559 -19.386356 -1.2746375
15.584396 -19.190527 -1.3077919
15.673681 -19.139948 -1.262784
5.6464267 -16.483082 -1.7697763
6.3760176 -16.258709 -1.7763904
6.7197475 -16.201912 -1.7856879
6.5612078 -16.193966 -1.777612
6.9644871 -16.137131 -1.790795
7.5532913 -16.044666 -1.7966851
10.880242 -13.809925 -1.7991285
11.029765 -13.666662 -1.7982256
3.4867001 -9.6764374 -1.7986263
3.613657 -9.6033373 -1.7987268
3.8157091 -9.4706497 -1.7880434
4.4311686 -9.0785542 -1.7682774
4.683548 -8.932745 -1.765769
5.1570864 -8.6872253 -1.7704651
5.5489273 -8.4567661 -1.7734281
3.1543899 -7.8570747 -1.7987608
5.8152704 -8.2419281 -1.7690721
6.2421293 -7.9811726 -1.7788143
2.6330338 -7.2422314 -1.7615201
3.4945922 -7.6659231 -1.7937517
3.9402742 -7.4093533 -1.7873437
4.3214059 -7.2095842 -1.7908902
2.872376 -7.1429658 -1.7602057
3.4155653 -6.8163543 -1.7434328
3.6821694 -6.624166 -1.7318082
4.6129422 -7.002286 -1.7875116
4.8812227 -6.6757431 -1.7608511
5.5645819 -6.6486197 -1.3593578
6.9694209 -6.6306753 -1.202801
0.39846557 -6.3682442 -1.2025609
1.1742265 -6.0596261 -1.2051278
1.9947183 -6.2001829 -1.2816317
4.0049257 -6.3490572 -1.7152246
4.4054174 -6.046793 -1.7092943
5.2356205 -6.3420391 -1.7519392
5.6708622 -6.2281218 -1.5660542
6.3113251 -6.4224033 -1.4446713
6.8429279 -6.2500987 -1.4612877
7.4341097 -6.0256643 -1.2019314
-4.3225932 -5.9121952 -1.2251916
0.3745693 -5.5775075 -1.2316451
0.94015718 -5.741004 -1.2412149
1.5774215 -5.8577366 -1.2310219
1.8678292 -5.9792662 -1.4028071
4.6831627 -5.8370504 -1.7106199
5.0623827 -5.5498219 -1.718784
5.9384599 -5.8833952 -1.7846055
6.235806 -5.6047611 -1.7913983
6.9559221 -5.7657061 -1.4628066
7.3089676 -5.8721118 -1.4093139
-4.2886724 -5.0061522 -1.2380569
-4.0371408 -4.86586 -1.2987094
5.3441448 -5.2867565 -1.7206033
5.6493759 -4.9773579 -1.7247891
6.3854079 -5.1126356 -1.57943
7.0765266 -4.960783 -1.3573306
7.2457561 -4.8769226 -1.2923787
-4.234827 -4.7913017 -1.2100298
-4.0519123 -4.7810116 -1.2731361
5.9083591 -4.7315869 -1.7352332
6.3893204 -4.5209675 -1.4795527
6.9347687 -4.5478811 -1.5775115
7.2480764 -4.728157 -1.2108634
-4.2087998 -3.7393832 -1.2495921
-4.1337461 -3.7741938 -1.2352383
6.4692574 -3.9256916 -1.528723
6.9011469 -3.7620649 -1.4897687
7.2470922 -3.690599 -1.2860366
7.0051193 -3.2994986 -1.5334194
7.2429829 -3.2930431 -1.2532237
6.5480976 -2.4582024 -1.5265594
7.0416489 -2.6914454 -1.466222
7.2425785 -2.6601086 -1.2283658
6.5424647 -2.3521647 -1.5585809
6.9354944 -2.2370763 -1.4646728
7.2462883 -2.0950346 -1.2473006
5.31425 -1.3566271 -1.2056111
7.1294451 -1.7761775 -1.2528398
7.2235203 -1.7848656 -1.2027565
4.9985394 -0.6260314 -1.2069641
5.0207291 -0.29498178 -1.2019783
5.0269513 0.19404647 -1.2026806
5.1525564 1.8844452 -1.2053266
-4.3557796 2.4602296 -1.2056409
5.767128 2.9930043 -1.4138747
6.063643 2.9882085 -1.429786
-4.4496756 3.1610878 -1.206542
-3.8918848 3.1378345 -1.2032521
3.7088835 3.3831286 -1.2065855
4.6127262 3.3020432 -1.2141595
5.1956577 3.2840998 -1.2801689
5.6679535 3.1877222 -1.3455197
6.1106739 3.0252502 -1.3750508
8.0493755 -22.965881 -1.1957357
12.090101 -22.807438 -0.86357796
7.7939434 -22.326984 -0.73776221
7.8620725 -22.433172 -0.7669118
11.258022 -22.514057 -0.83565015
11.467896 -22.680378 -0.84693182
12.12282 -22.765175 -0.86423981
13.664915 -22.730354 -0.89963317
16.67429 -22.254745 -0.96334869
7.7936802 -22.082985 -0.8147223
7.9518023 -22.028419 -0.88881731
16.85775 -22.117483 -0.98400551
13.945169 -19.692675 -0.80044097
11.975949 -14.557853 -0.68846357
12.001679 -14.554518 -0.68993342
-3.6201892 -6.6083798 -0.76561189
-3.1928341 -6.6095304 -0.72692394
-2.6489048 -6.6112876 -0.69879323
-2.0346134 -6.6141758 -0.6727705
-1.507309 -6.6080146 -0.65461445
-0.84995437 -6.6156034 -0.64128101
-0.24771719 -6.6146345 -0.63540936
2.0616503 -6.6284256 -0.68221831
5.7769165 -6.7308674 -0.99174541
6.3495021 -6.6195092 -1.1000593
6.9147024 -6.6115146 -1.1392257
-4.3829441 -6.0807676 -0.72847736
-3.7829213 -6.2731676 -0.66978699
-3.2636075 -6.4966469 -0.64564759
-2.6449275 -6.3426237 -0.72912669
-2.1221113 -6.3393044 -0.71377087
-1.5511854 -6.5976896 -0.65581179
-0.80281144 -6.4800425 -0.72938073
-0.25703207 -6.401794 -0.66165423
0.36340055 -6.1985984 -0.93530959
1.0973996 -6.11308 -0.77216238
1.3398228 -6.0999336 -0.89168406
2.030818 -6.3644934 -0.76279545
5.787714 -6.4980273 -0.84634101
6.3580399 -6.5300112 -0.92537808
6.9706678 -6.3253841 -0.9973222
7.3874545 -6.0154243 -1.155036
-4.3793564 -5.7278013 -0.8422904
-3.8180108 -5.7106009 -0.83181316
-3.3631327 -5.7846775 -0.86025
-2.6988816 -5.9871216 -0.74814832
-2.2816164 -5.99228 -0.72682446
-0.14379793 -5.6498203 -0.60153472
0.4610635 -5.9410501 -0.92164129
1.0182216 -5.9205036 -0.95825309
1.5353193 -5.9399385 -0.90346122
1.8511101 -5.9788513 -1.179203
7.1386156 -5.8223109 -0.940624
7.4231453 -5.8236341 -1.0945289
-4.3846464 -5.1259265 -0.81378841
-3.7356858 -5.3918247 -0.85863554
-2.919477 -4.9168968 -0.87445503
6.4556179 -4.8796549 -1.1195459
7.197793 -5.3286495 -0.90920854
7.2757926 -5.2138777 -0.95481026
-4.2882657 -4.5142288 -0.73998004
-4.0061064 -4.5792007 -0.94087601
-2.8631825 -4.6022291 -0.82029688
-1.3392355 -4.21278 -0.89288747
-1.0715475 -4.2126102 -0.89111483
-0.28186947 -4.2210312 -0.94195116
0.77441198 -4.2247968 -0.86329097
6.5625191 -4.7126465 -1.1178954
6.903193 -4.4031882 -1.0953995
7.3658781 -4.4342699 -0.8679328
-4.2508831 -3.9041193 -0.71987969
-3.8502951 -3.9123545 -1.1329679
-3.499728 -3.9375589 -0.792606
-1.4366159 -3.9583082 -0.85406899
-0.84880209 -4.0790329 -0.84348214
-0.17314078 -4.1899848 -0.93211162
0.46678731 -3.9474154 -0.67620575
0.90190423 -3.8401568 -0.83724058
1.4120796 -3.80198 -0.8969028
7.0624714 -3.9197657 -1.0948783
7.3875313 -3.8264246 -0.86690557
-4.2228804 -3.2386732 -0.78198254
-3.7689648 -3.2634141 -1.0506759
-3.4353619 -3.4809048 -1.11336
-2.5081553 -3.4188871 -0.68930233
-2.2203364 -3.3477039 -0.61998081
-1.4227152 -3.3284941 -0.73876226
0.47283927 -3.2303753 -0.60440397
0.7611109 -3.4954026 -0.7526859
7.0648241 -3.2319832 -1.0714538
7.3979335 -3.3113453 -0.90450019
-4.2088728 -2.6680436 -0.74709976
-3.9008412 -2.7007723 -1.0094335
-2.4496155 -2.8156857 -0.73453939
-2.0254552 -2.6258035 -0.65973955
-1.5001779 -2.6940174 -0.60616994
-0.62077951 -2.7284098 -0.60389578
-0.54872805 -2.7380757 -0.60247558
0.22874293 -2.7759218 -0.60134417
7.11588 -2.7304277 -1.0266428
7.4111881 -2.6496837 -0.86595798
-4.3032861 -2.1041155 -0.83220565
-3.9609568 -2.0675678 -0.84171128
-2.5018306 -2.0296102 -0.69803488
-2.3487709 -1.9349995 -0.60290647
-1.6177757 -2.3981242 -0.6129967
7.1929502 -2.085052 -1.0603826
7.3043604 -2.0624568 -0.96116531
-4.2072272 -1.5258197 -0.60247791
-3.8961403 -1.5106388 -0.75897789
-3.5478406 -1.3362362 -0.60623211
5.2958975 -1.3561788 -1.1251326
5.7809172 -1.2778851 -0.97669762
6.0411167 -1.3066602 -0.97801393
7.1846657 -1.5177836 -1.0854434
7.2874508 -1.5950595 -1.0398748
-4.2123289 -0.72987646 -0.6042248
-3.9096117 -1.0189542 -0.62925017
-3.5341063 -1.130896 -0.6847809
5.1644092 -0.7845366 -1.0612369
5.596633 -0.87385732 -0.8830452
6.5114136 -0.71957231 -0.8837924
7.144506 -0.96368897 -0.98918211
7.4232635 -0.89115071 -0.82265705
5.0784321 -0.26018 -1.0290382
5.8475976 -0.2026609 -0.64261746
6.1528788 -0.17725962 -0.63903892
6.8449697 -0.25174364 -0.752949
7.453021 -0.34754199 -0.75300926
7.8488922 -0.4856295 -1.0279415
-4.3096228 0.15379703 -0.61377758
5.1001191 0.20896623 -1.0940256
5.8271456 0.090694346 -0.9020406
6.3858671 0.32295033 -0.87907696
7.1850328 0.1444007 -0.61553222
7.3959427 0.30149034 -0.77112675
-4.2209091 1.0923281 -0.7261399
-3.9922857 0.94054741 -0.60521001
5.126904 0.88632762 -0.88870448
5.8836622 0.7147243 -0.93400192
6.4155111 0.8290714 -0.86748105
6.6641512 0.71447468 -0.79411012
7.4077039 0.67213768 -0.9083724
-4.3252516 1.5339135 -0.81866711
-4.0388651 1.3329401 -0.60722464
5.1232624 1.5165067 -0.97851384
6.4067917 1.5556434 -0.8512876
6.8741016 1.4903653 -0.84685451
7.4091778 1.3250219 -0.92304325
-4.3428297 2.0896297 -0.88231516
-4.1417704 1.9041648 -0.60740429
1.1902118 2.3902931 -0.60202289
3.4472246 2.2871833 -0.92826927
3.7306843 2.1980882 -0.97910696
5.150332 1.9955966 -1.0382055
5.6942816 2.2615218 -0.6313765
6.3182321 1.8332434 -0.76989484
7.3915529 2.2724011 -0.6733253
-4.3173323 2.5791624 -0.96474952
-3.6160977 2.9476743 -1.0728419
-3.2076035 2.7965693 -0.88450539
-2.793319 2.9088092 -0.74073017
-1.9975834 2.8317721 -0.65394866
-1.4697838 2.8480506 -0.63989437
-0.93779945 2.5799925 -0.60447502
1.0062139 2.6273098 -0.61057961
1.5340841 2.8175259 -0.6271584
2.0258741 2.8877783 -0.6834296
3.4714031 2.48663 -0.86930048
5.134222 2.4369009 -1.006865
5.8935804 2.5949316 -0.74561977
6.170722 2.9866743 -1.0695081
7.4287605 2.7701864 -0.72416317
-4.342536 3.1275225 -1.03651
-3.8715742 3.1265359 -1.0014889
-3.1730413 3.1355143 -0.73177487
-2.6841817 3.0797038 -0.76563662
-2.1206686 3.0479763 -0.75962555
-1.4320004 3.0178785 -0.74938488
1.480118 3.058373 -0.76106727
2.1942079 3.0787404 -0.74522305
2.7631721 3.3515811 -0.78373373
3.3042347 3.3956919 -0.8833369
3.8743231 3.3713374 -0.88203382
4.5555091 3.3071651 -1.0650705
5.0787935 3.3443837 -0.89234924
5.7851715 3.3451309 -0.7995612
6.2293239 3.0834479 -0.94521445
6.8721919 3.1395154 -0.75435793
7.3628616 3.10566 -0.75701106
11.389938 -22.951019 -0.12658599
11.51346 -22.858391 -0.11972459
13.788368 -22.816038 -0.13481951
13.855392 -22.83379 -0.14040439
8.2639656 -22.437199 -0.087355025
11.626341 -22.730736 -0.11897133
13.792299 -22.781368 -0.13888361
13.825818 -22.751263 -0.14101934
16.77948 -22.323063 -0.16739115
16.935526 -22.276337 -0.16869253
8.2098217 -21.942066 -0.24435444
16.75478 -22.151142 -0.16022545
16.889313 -22.190012 -0.15007986
8.2913723 -21.241398 -0.16136128
8.8962336 -21.008377 -0.074214473
9.3997841 -21.24691 -0.28305662
8.0387688 -20.474644 -0.42199665
8.7041121 -20.974525 -0.07290215
9.5095587 -20.443836 -0.44165686
8.1369905 -20.317907 -0.41902107
9.5273418 -20.391661 -0.44224364
9.6527309 -20.358421 -0.41590557
14.064632 -19.826294 -0.10889938
14.095032 -19.761761 -0.11024963
11.764695 -18.0193 -0.070550546
11.76442 -17.966217 -0.21915327
11.283403 -16.440269 -0.40119764
11.489692 -16.296555 -0.40154475
-3.9787741 -6.6435919 -0.20203921
-1.8538331 -6.6118002 -0.016066156
-1.5640926 -6.6033392 -0.0023694609
-1.0081991 -6.6041059 -0.00068640633
-0.30424872 -6.603301 -0.0013492017
0.44542363 -6.602746 -0.0010090078
1.0463792 -6.6053934 -0.00063435885
1.2713265 -6.6520762 -0.0032846155
5.7270722 -6.7853103 -0.17077613
6.3456888 -6.6890087 -0.31345251
6.9162064 -6.6493263 -0.40082175
-4.3398409 -6.0875559 -0.22010937
-3.9318562 -6.3855305 -0.21860337
-3.3068609 -6.4990239 -0.14456134
-2.6469314 -6.5222926 -0.081647672
-2.0103884 -6.470089 -0.25252455
-1.4325721 -6.479259 -0.22969916
-0.86968529 -6.4725046 -0.25537091
-0.19117436 -6.4173689 -0.2995418
0.36587292 -6.2929192 -0.28949398
0.98223871 -6.2855072 -0.2926231
1.4576819 -6.154983 -0.35231942
2.0285401 -6.3603859 -0.29532278
5.7636299 -6.4294095 -0.10950021
6.358428 -6.4506721 -0.14747888
6.9445219 -6.3195953 -0.27620634
7.440403 -6.0337462 -0.39889044
-4.4236326 -5.808219 -0.13116279
-4.0947027 -5.9518723 -0.10119833
-0.11809251 -5.5215783 -0.42410398
1.1979862 -5.6509285 -0.039331362
1.3386978 -5.7590194 -0.14830467
1.8785079 -5.9247437 -0.0024743259
7.0404673 -5.7484798 -0.15084445
7.4787073 -5.7627621 -0.33727002
-4.4282141 -5.0297031 -0.16663745
-0.086837359 -5.3917322 -0.44700885
7.1986113 -5.0901537 -0.14876096
7.3356829 -5.0689421 -0.15610868
-4.3756018 -4.5087762 -0.28522116
7.1990681 -4.4890413 -0.1456362
7.3403831 -4.4894409 -0.14278932
-4.3437471 -3.8874609 -0.20315173
-1.2046027 -3.8324904 -0.37740317
-0.91425264 -3.8926067 -0.36414212
-0.014225337 -3.661412 -0.40623093
0.26457351 -3.648767 -0.52232295
7.1961403 -4.1918726 -0.15032855
7.4701123 -3.8176692 -0.15311155
-4.3267431 -3.3069072 -0.21102646
-1.9233398 -3.0482831 -0.51718533
-1.5015522 -3.132926 -0.39087737
-0.16784856 -3.1611202 -0.36801088
0.2777614 -3.2458549 -0.51458943
7.4475565 -3.2924924 -0.2998094
-4.3802671 -2.7297788 -0.29248452
-1.8039246 -2.707669 -0.53063726
-1.4671373 -2.6437516 -0.47815511
-0.74721181 -2.7634697 -0.48326898
-0.4614788 -2.8040295 -0.48594022
0.23349902 -2.8224039 -0.54929423
7.4516206 -2.6634829 -0.28503603
-4.4126334 -2.0663095 -0.18250166
-2.3452611 -1.9230596 -0.59669864
-1.6475282 -2.3953333 -0.56991577
7.4644394 -2.0718899 -0.24664399
-4.3700161 -1.4942298 -0.17700994
-4.1874504 -1.5147772 -0.57427859
-3.5152142 -1.3374066 -0.55112994
7.4771919 -1.4880311 -0.22758532
-4.3483763 -0.91701734 -0.20093417
-4.1415462 -0.81269139 -0.53546393
-3.4174798 -1.1359019 -0.52840948
-2.7383599 -0.90032303 -0.3172363
-1.5227391 -0.61172402 -0.33057243
7.4486628 -0.87146425 -0.18548933
-4.3493571 -0.32623178 -0.29413402
-4.0350232 -0.30972177 -0.46919012
-1.8330578 -0.087820835 -0.21357128
-1.5517832 -0.32524991 -0.26666981
5.7310104 -0.052984353 -0.5733127
7.4524164 -0.2900368 -0.18777603
-4.2720151 0.19342564 -0.40348887
-4.0685463 0.34936273 -0.2853272
-1.8472087 0.11518461 -0.21696788
-1.5426153 0.34761637 -0.26907045
5.3590488 0.42857051 -0.46311238
5.6472664 0.18856721 -0.50111973
6.2376823 0.26014751 -0.47967842
7.4560061 0.30900851 -0.20742121
-4.2235518 0.8838861 -0.3101486
-4.0693846 0.87001836 -0.37479249
-1.5257469 0.60983753 -0.32427311
5.3369484 0.91645914 -0.46082741
7.4513006 0.91613001 -0.24702558
-4.351243 1.5447373 -0.20570497
-4.1384053 1.3536379 -0.27966768
5.2931108 1.4625919 -0.52342463
5.8756342 1.5921291 -0.45134747
6.0675521 1.3146119 -0.41657001
7.4884663 1.5702252 -0.3076241
-4.4642906 2.0638266 -0.15463018
-4.0872641 1.8834336 -0.58650976
-0.77287924 2.3285964 -0.22463509
-0.33113432 2.3664563 -0.24295364
0.3302328 2.2668965 -0.28466016
0.97613597 2.3056617 -0.34780109
1.2034069 2.3918915 -0.55077827
3.186758 2.3234158 -0.0037766346
5.2986903 1.8644118 -0.55813539
5.9511027 1.8855228 -0.53189981
6.0693893 1.9750023 -0.54904342
7.4857998 2.1231356 -0.33858082
-4.4068694 2.721529 -0.29903159
-2.5881186 2.9348195 -0.3890191
-2.1041455 2.9108272 -0.37838584
-1.4323289 2.8661733 -0.38989577
-0.91478205 2.6108057 -0.41210127
-0.2920562 2.6877923 -0.30456188
0.24772738 2.6134744 -0.23107688
1.0006727 2.5256898 -0.33445856
1.4212687 2.7272079 -0.2586922
2.1029358 2.9569106 -0.39735138
7.488759 2.7196012 -0.29158443
-4.3484583 3.1615858 -0.24597564
-3.883765 3.2257316 -0.24399829
-3.2542439 3.197763 -0.21297587
-2.6316185 3.0978179 -0.22654863
-2.0791402 3.131588 -0.10105594
-1.5349618 3.1184697 -0.12445634
-0.83749503 3.0604353 -0.14215778
-0.23887736 3.0960946 -0.24069861
0.29808694 3.1082156 -0.12489893
0.90234536 3.0684326 -0.11581928
1.6137118 3.1371322 -0.1179873
2.120723 3.1552501 -0.12516466
2.7816315 3.4049878 -0.26328304
3.2441769 3.465178 -0.25604275
3.9764068 3.4497075 -0.33750874
4.4390664 3.422297 -0.26299852
5.1521831 3.4787343 -0.32695517
5.7747846 3.4155526 -0.2509228
6.216157 3.1815114 -0.15773118
6.9490156 3.1340308 -0.2639156
7.4348044 3.1163054 -0.3111605
2.9743905 3.6245813 -0.44874197
3.3636456 3.650816 -0.063205875
3.7189627 3.6397753 -0.078567103
5.855433 3.6369238 -0.024090154
14.034421 -19.766378 0.051188879
11.814669 -18.061447 0.074440524
-3.9208755 -6.6127305 0.06324251
-3.2870812 -6.6083922 0.075182468
-1.3778281 -6.605917 0.0057092384
-0.91054213 -6.6032763 0.013126478
-0.33420014 -6.6039429 0.01377278
0.40876782 -6.6030478 0.010671946
1.0617114 -6.6021361 0.0077520814
1.2678444 -6.6502743 0.005407609
-3.9495852 -6.4301987 0.077436991
-3.3675811 -6.5836372 0.080386467
-1.5630629 -6.5958643 0.002808823
-0.84745824 -6.4152241 0.059596259
-0.25483418 -6.417696 0.059897926
0.35463244 -6.4581976 0.050653856
1.0232885 -6.3504672 0.056662306
1.223963 -6.1944685 0.050020896
1.949832 -6.0679846 0.052808069
6.5534768 -6.5520821 0.061149646
6.9088335 -6.3596406 0.057492781
-4.4854803 -5.8149595 0.083178125
1.1937151 -5.610239 0.0036733625
1.2651651 -5.6039944 0.0075938883
1.8724532 -5.917716 0.023003828
7.3673215 -5.5794649 0.060689889
-4.3732915 -4.5089951 0.07384713
-4.3902178 -3.9944637 0.07355912
-4.1546292 -3.288002 0.034387276
-4.4832263 -2.6194246 0.069920503
-4.3360028 -2.1159689 0.069722794
-4.1889377 -1.8663921 0.055087455
7.5345874 -2.0742538 0.04142423
-4.2054925 -1.5381379 0.066530518
-4.1830153 -1.6192404 0.069556341
7.5434866 -1.4248883 0.039138675
7.5475922 -0.83729351 0.040849123
7.5482831 -0.28298843 0.039798133
7.5497327 0.32689735 0.039639406
7.5531921 0.93101764 0.037496254
-4.2034578 1.7262616 0.015763056
-4.1668811 1.6874098 0.063906632
7.5531602 1.5201488 0.034489289
-4.3293014 2.1225367 0.061691366
-4.1672659 1.8881068 0.060171701
3.2002797 2.3385072 0.04639142
7.5512605 2.0290122 0.030416608
-4.4690237 2.6296668 0.062420372
-1.3376584 2.9233227 0.015951369
-0.61219811 2.6309834 0.046811126
-0.45668715 2.6300263 0.051867165
0.24582247 2.5952849 0.047625549
0.63863075 2.6497946 0.03813611
1.4024459 2.9388604 0.013718988
-4.2029119 3.2306323 0.032382313
-4.014245 3.247721 0.06141299
-3.3664584 3.0439391 0.058311008
-2.4079499 3.2012515 0.05372712
-2.3101468 3.2058911 0.056471646
-1.5677497 3.1075225 0.053465404
-1.0442779 3.0796719 0.051821083
0.13321969 3.289319 0.048174024
0.99007213 3.1277688 0.018820357
1.7222204 3.0650752 0.045314759
2.3142407 3.160032 0.044143386
2.4204206 3.17485 0.048078708
3.2065744 3.2785549 0.04192552
3.8548503 3.5463338 0.040762722
4.7860451 3.4537206 0.042751357
5.1466398 3.4287562 0.038830817
5.4576468 3.4248199 0.03476546
6.9244299 3.1884863 0.035377435
3.5979283 3.6349411 0.0037885858
3.6600494 3.6258631 0.04281842
7.9895353 -22.443001 -1.637707
8.0152836 -22.438694 -1.6411493
8.7781849 -22.428425 -1.6620343
8.8168135 -22.415472 -1.6640365
8.7896814 -22.399693 -1.6618602
8.8251972 -22.38327 -1.6539357
6.153439 -16.306704 -1.747527
6.7789249 -16.209412 -1.7888337
7.0638967 -16.143042 -1.7965726
7.3872375 -16.106386 -1.7964941
7.753233 -16.019232 -1.8190923
7.9736795 -15.968941 -1.8239228
8.1094122 -15.94636 -1.8298422
8.4274368 -15.88607 -1.8322188
9.0906458 -15.658041 -1.8579897
9.5739326 -15.654825 -1.8871832
9.6078863 -15.644612 -1.8884282
9.9753742 -15.421958 -1.8907804
10.020185 -15.389986 -1.8901398
10.174704 -14.85206 -1.8543687
10.282059 -14.639142 -1.8331695
4.6941414 -14.131572 -1.8356012
4.9156327 -14.084777 -1.8405119
10.592833 -14.129929 -1.8123062
5.0445557 -13.985643 -1.835259
5.7483821 -13.723274 -1.829828
10.866363 -13.803641 -1.7938694
6.1938162 -13.498909 -1.8358592
6.5053101 -13.393648 -1.8418152
6.9338398 -13.31417 -1.8601551
7.3605847 -13.181231 -1.8690732
7.692049 -13.087141 -1.8860178
8.199708 -12.853534 -1.8985509
8.2983723 -12.789483 -1.8986858
8.5893316 -12.736872 -1.9101033
9.157155 -12.516184 -1.9351909
9.2318993 -12.471825 -1.9341959
9.4405556 -12.262775 -1.9273521
3.2705412 -9.7782497 -1.8051827
3.8230991 -9.4774036 -1.7949498
4.0980339 -9.2516651 -1.7775977
4.2535543 -9.158555 -1.7746043
4.6769872 -8.9304552 -1.7713895
4.9349308 -8.7781048 -1.7727441
5.3835092 -8.5695629 -1.7776351
5.6224623 -8.429945 -1.7831175
5.7620459 -8.2411118 -1.7644408
6.1882854 -8.0509033 -1.7942308
3.0865917 -7.9197879 -1.8134786
3.484092 -7.7138257 -1.8185799
3.6513495 -7.6269779 -1.8035573
6.2358675 -7.9883776 -1.7802694
3.8802276 -7.4511137 -1.7925663
4.1891894 -7.3060708 -1.8046775
4.4068842 -7.2012458 -1.8027768
3.1957705 -7.0239663 -1.7789037
3.4735808 -6.8354321 -1.7534642
4.6894965 -6.95895 -1.789788
3.5556824 -6.65626 -1.7235379
3.7045441 -6.6218395 -1.7352278
4.7494783 -6.7878904 -1.7667363
4.9071503 -6.6151705 -1.7544551
6.7914953 -6.4613113 -1.6427131
6.8202744 -6.4487996 -1.6383179
3.9828591 -6.3361359 -1.7224066
4.297442 -6.1257243 -1.7100391
4.5160389 -6.0065622 -1.721462
5.1627493 -6.3583488 -1.7468544
5.3459253 -6.3062582 -1.761729
5.7666197 -6.0503359 -1.7847388
4.6118789 -5.85991 -1.7100618
4.9495769 -5.6968489 -1.7280312
5.855442 -5.9379978 -1.7813406
6.0398245 -5.7834578 -1.7859447
6.7969494 -5.8910236 -1.6067052
7.0827236 -5.8679829 -1.6026011
5.086236 -5.5582027 -1.7255203
5.3223534 -5.3476496 -1.7379458
6.3856592 -5.4473715 -1.7940745
6.4049315 -5.508275 -1.8069042
5.4700246 -5.1516342 -1.7430167
5.7301154 -4.8937626 -1.7538551
6.1082973 -4.8549628 -1.6561837
6.4534135 -5.1945562 -1.7664356
5.875154 -4.7352614 -1.730695
6.1689019 -4.5134058 -1.6972663
6.3878431 -4.1295834 -1.7034791
6.428236 -4.2180433 -1.6645575
6.3545499 -3.8164656 -1.6494085
6.6448956 -3.7249253 -1.677929
7.0664444 -3.7499547 -1.7055535
6.7445641 -3.4492941 -1.7406909
7.0620613 -3.3320351 -1.6612651
6.7851644 -2.9678004 -1.707458
6.970582 -3.0372233 -1.6649046
7.2026005 -3.0525358 -1.6679211
6.5425835 -2.5421872 -1.6047432
7.1840611 -2.4318233 -1.6127617
7.2021523 -2.4289322 -1.6146753
6.6482115 -2.3069415 -1.6123075
7.0450869 -2.20785 -1.7077019
5.9999738 2.9470158 -1.6088994
6.0167894 2.9617028 -1.6061075
11.801912 -23.217789 -1.3147643
11.578326 -23.047863 -1.3684541
11.648726 -23.05888 -1.3138502
12.019424 -23.039473 -1.3201861
12.49922 -22.826544 -1.3303783
7.9619827 -22.474911 -1.5992835
8.0365944 -22.444996 -1.5977556
11.981532 -22.635857 -1.3033364
12.006884 -22.648027 -1.302086
12.553522 -22.585842 -1.3180717
12.821272 -22.492702 -1.3217578
13.055754 -22.298088 -1.3187606
13.277416 -22.180191 -1.321022
13.453036 -21.878525 -1.3116554
13.943172 -21.730446 -1.3212234
14.0147 -21.653679 -1.3161286
14.103159 -21.348778 -1.3080463
14.366332 -21.131895 -1.3051831
14.530762 -20.969688 -1.2991701
14.259674 -20.029039 -1.2492583
14.67754 -20.187548 -1.2735128
14.877884 -20.083004 -1.265626
14.312481 -19.989601 -1.2667643
15.033239 -19.875019 -1.2715983
15.518822 -19.725739 -1.2837818
15.600739 -19.637274 -1.2781895
15.698767 -19.090017 -1.2617877
0.31218484 -6.405117 -1.2041762
5.5570297 -6.7294703 -1.3696688
5.8503513 -6.4167299 -1.3663027
6.3955302 -6.420557 -1.3217825
6.4810896 -6.4061232 -1.2967024
6.8365564 -6.4503746 -1.4901795
0.29834491 -6.3893008 -1.2041082
1.9905949 -6.1988916 -1.3265109
2.0649204 -6.1555891 -1.2658081
5.5575323 -6.2707405 -1.3131911
5.8133569 -6.3848696 -1.20408
6.4532232 -6.3919377 -1.2782848
6.8345361 -6.0100188 -1.2794123
7.4541912 -6.0312891 -1.2027109
0.74299705 -5.6504812 -1.260304
0.99415672 -5.7948608 -1.2507261
1.7963378 -5.8803949 -1.2080257
6.7980075 -5.8797407 -1.5854566
6.8396397 -5.8598452 -1.5011134
7.4894667 -5.8503356 -1.2006209
0.64951015 -5.5436363 -1.2412462
6.851892 -5.5159512 -1.5365994
-4.2863832 -4.9939528 -1.2521577
6.3744106 -4.9827018 -1.3160915
6.4335084 -5.0972977 -1.3207695
7.240365 -4.9609919 -1.2318788
6.332221 -4.7298927 -1.3461447
6.5327759 -4.5804968 -1.310001
7.2382407 -4.6981597 -1.2066872
6.516861 -4.1625137 -1.2693526
7.1858859 -4.0905194 -1.204602
7.2224379 -4.0866952 -1.2037652
6.3795185 -3.7849243 -1.5984633
6.6082726 -3.9033313 -1.2930071
7.123004 -3.7397454 -1.3392758
7.248837 -3.796886 -1.3028119
7.0149579 -3.3189058 -1.2763324
7.2468758 -3.2623267 -1.2551343
6.7941251 -3.1848791 -1.5013604
6.9856977 -3.085999 -1.3669298
7.2451415 -2.9172983 -1.2276936
6.5725951 -2.5215907 -1.5195884
7.1354971 -2.6831143 -1.2695982
7.2444801 -2.7013602 -1.2494746
6.6928878 -2.3333967 -1.5379381
6.9979286 -2.3447881 -1.5076303
7.2145424 -2.2604895 -1.3286835
7.1908579 -1.7818408 -1.2686217
7.2140861 -1.7680423 -1.2850628
5.3217096 -1.3639934 -1.2041345
5.008781 -0.53409445 -1.2021441
5.024519 -0.29396516 -1.2036853
5.0307531 0.22111481 -1.2030795
5.1026106 1.6642096 -1.2031425
4.9882131 2.3990707 -1.2033038
-4.3479614 2.4792771 -1.2027326
5.007875 2.4284489 -1.205745
-4.4561701 3.163028 -1.2017307
4.7587776 3.1637406 -1.2388959
4.8286991 3.1915636 -1.2253027
5.595192 2.9475043 -1.473021
5.6737213 3.0007019 -1.3716043
6.031229 2.9758291 -1.5307158
-4.4327154 3.2004418 -1.2104809
3.7220368 3.3728981 -1.2081482
4.787158 3.2703962 -1.2191219
4.9720659 3.2644508 -1.2410386
5.5249863 3.2415347 -1.4538004
5.7138786 3.2917933 -1.3329396
7.8107328 -22.599861 -0.81607664
8.0551205 -22.225616 -1.1738156
8.0426044 -21.975304 -1.1595838
5.5961304 -6.8545747 -0.94145769
5.7098746 -6.8953886 -0.98561233
-3.7655916 -6.5991626 -0.80561852
5.5906353 -6.4211893 -0.84626019
5.7819686 -6.4833694 -0.92586267
6.1115093 -6.6206074 -1.0776792
6.6068163 -6.5525131 -0.95294929
7.0078731 -6.5895557 -1.0343212
-4.4451408 -6.0885816 -0.84137106
-4.3915739 -6.0742016 -0.90133429
-3.8289227 -6.0253353 -0.83666372
-2.8675706 -6.0821419 -0.81312311
-2.7128873 -6.1847162 -0.80722046
0.30792555 -6.391633 -1.1985545
1.1979415 -6.1298828 -0.97584093
1.2161412 -6.065763 -0.96667856
1.9472842 -6.2278504 -0.86055017
2.0655341 -6.1660366 -0.85725671
5.6675596 -6.3743434 -0.8513723
7.0811815 -6.0274639 -1.1206654
7.4773064 -6.0147781 -1.1656675
-4.4446006 -5.9760542 -0.89134002
-4.1112952 -5.7322206 -0.87549722
-3.7976975 -5.7688437 -0.89156806
-3.5144906 -5.6202812 -0.87284017
-2.8396173 -5.9908981 -0.80697143
0.30891675 -5.9178805 -0.91632861
0.73145711 -5.8219252 -1.087709
1.1127374 -5.9323053 -0.94113278
1.5399761 -5.8473501 -1.1267622
1.8083777 -5.9837012 -0.98000133
6.9642801 -5.9412708 -0.93243909
7.3837109 -5.7982807 -1.0655216
-4.423666 -5.3132439 -0.80732608
-4.2691293 -5.3092937 -0.9171772
-3.7493873 -5.494133 -0.86672252
-3.5446644 -5.4455318 -0.84920585
7.1682663 -5.3865433 -0.9095338
7.3107848 -5.3345671 -1.0563624
-4.44806 -5.0316291 -0.80812144
-4.2908278 -4.8327408 -0.84335059
-2.9164805 -4.9340839 -0.87952363
6.3989105 -4.9783506 -1.1244253
6.4423156 -4.9502001 -1.1214883
7.3484745 -5.1563673 -0.95717251
-4.2944636 -4.7962008 -0.84710085
-2.8407373 -4.6383753 -0.82374531
6.6887789 -4.6644611 -1.1301472
7.3541012 -4.4151087 -0.86310554
-4.2826529 -4.1950173 -0.92454588
-3.6955528 -4.148633 -1.0254526
-1.4376369 -4.1851864 -0.93033075
-1.1141419 -4.1247582 -0.82470751
-0.59571719 -4.159235 -0.84224862
-0.19948016 -4.2529573 -0.94877756
6.7215405 -4.2366381 -1.0975034
6.9570122 -4.0086851 -1.1109431
7.3159132 -4.2172136 -0.99876189
-4.244174 -3.946373 -0.88832146
-3.8050277 -3.711175 -1.1054654
-1.4145248 -3.9404092 -0.93027258
0.78279781 -3.6556654 -0.81776297
0.89723659 -3.7778046 -0.85156024
7.0065975 -3.7670345 -1.1001966
7.2499924 -3.7751369 -1.1382115
-4.2455215 -3.5112305 -0.83656478
-3.8240399 -3.3904209 -1.0649819
-3.3920312 -3.5005703 -1.1277337
0.72718847 -3.5551825 -0.81065023
0.93773854 -3.5873668 -0.80964589
6.9889264 -3.2707515 -1.0628836
7.3400087 -3.4507389 -1.0548341
-4.2808633 -3.0349278 -0.8017413
-3.7764711 -3.118535 -1.0259266
6.9827242 -3.0951796 -1.0510793
7.374548 -2.9655819 -0.9795807
-4.2531013 -2.5068932 -0.88508105
-3.6998401 -2.4447393 -0.99597836
-2.4458246 -2.6575246 -0.80484724
-2.1922731 -2.6514294 -0.80162466
7.026073 -2.7003086 -0.98739684
7.4904613 -2.6310349 -0.89785695
-4.409502 -2.0416002 -0.94373465
-4.3736792 -2.1260891 -0.89556015
-3.7789044 -2.1633601 -0.97917747
7.1720595 -2.1832767 -1.0377572
7.3661528 -2.1190779 -1.0182532
-4.4084778 -1.9878211 -0.99367034
-4.2843399 -1.938827 -0.98917449
-3.9288421 -1.8480424 -0.93133307
7.1484318 -1.7316884 -1.0216837
7.3260155 -1.6862359 -0.97439063
-4.0030379 -1.5538585 -0.89977622
-3.8935785 -1.5402591 -0.82231492
5.1908894 -1.254702 -1.127136
5.352725 -1.342795 -1.1050187
5.9356184 -1.2677585 -0.9575026
6.0086393 -1.2981589 -0.96969098
7.1569538 -1.3281976 -0.99738193
7.3772712 -1.3601251 -0.94744962
-4.084198 -1.1838375 -0.85071987
5.1450195 -1.1349654 -1.1126385
5.3844404 -1.0533735 -0.99902552
5.6914396 -1.1039383 -0.90369368
7.1412811 -1.1328397 -0.99201709
7.2741528 -1.0011146 -0.99434388
5.0187607 -0.53649902 -1.1643845
5.3761544 -0.55688441 -0.83155829
5.7024469 -0.6667574 -0.89769375
6.7243996 -0.40475413 -0.85006988
7.4881611 -0.72392815 -0.88381696
5.0364723 -0.30462533 -1.1651895
6.7375965 -0.39241469 -0.82523608
7.5240369 -0.31133264 -0.86253959
5.0391746 0.32238275 -1.1665454
7.4117794 0.3976565 -0.90287584
5.1134663 0.61607242 -0.95823419
5.8382916 0.73084879 -0.96062452
6.6499157 0.71683693 -0.80476648
6.8503075 0.66585189 -0.82243317
7.4146891 0.41955441 -0.90751231
5.1855092 0.89555091 -0.80988562
5.2163949 0.88246828 -0.82017112
-4.4099302 1.4261714 -0.80580866
-4.3923783 1.4185238 -0.80159438
5.0624666 1.2589412 -0.80699164
6.3112373 1.5784106 -0.87712491
6.7877102 1.4416301 -0.83338952
6.8272743 1.4153507 -0.83334327
7.3584113 1.3975391 -0.91725338
-4.4306631 1.7327744 -0.82373077
-4.3546648 1.7858511 -0.89354813
5.1213002 1.692126 -1.1241021
6.2511115 1.732119 -0.8045578
6.6641183 1.6930466 -0.82243747
-4.4130764 2.1175208 -0.83567673
-4.3971572 2.1497123 -0.83837056
3.3053083 2.3293419 -0.90351343
3.8787799 2.1567185 -1.0090747
4.9961987 2.3281422 -1.0990536
-4.410131 2.5554745 -1.0606509
-4.3543606 2.5169227 -1.1128011
-3.290875 2.7596934 -0.91965246
-3.0009584 2.6877472 -0.89831352
3.4714527 2.4856524 -0.86916751
5.0838442 2.4393592 -1.0530033
5.2443848 2.457619 -0.90765256
-4.4315977 3.1700649 -1.1464026
-4.2762499 2.9677002 -0.81199706
-3.8308547 3.1428604 -1.0877445
-3.2349627 3.1166561 -0.84779209
-2.9296579 3.1302297 -0.86273921
-2.6011381 3.0793552 -0.89707637
-2.1821566 3.0735402 -0.83142549
-1.9127632 3.0787022 -0.80434501
-1.5227017 2.9891953 -0.80329335
1.4439806 3.0489378 -0.80141187
1.9701736 3.0600345 -0.80745876
2.3380957 3.0822067 -0.85826159
4.7042303 3.1428428 -1.1042664
4.803524 3.1909778 -1.1957078
5.854732 3.0767357 -0.83534557
6.3022785 3.0486069 -0.91467488
6.608326 3.0704589 -0.94494665
-4.4109302 3.2037477 -1.1575179
-3.6936114 3.2152081 -0.83883977
2.6556039 3.4217114 -0.89068478
3.127667 3.3759336 -0.98680401
3.3513365 3.4404533 -0.93370521
3.7225554 3.3955135 -1.1499643
4.1288834 3.3272529 -0.81939524
4.5630236 3.2928171 -1.0546045
5.0272617 3.337276 -0.99094129
5.4507732 3.3333645 -0.93972623
5.8451166 3.410964 -0.8271842
6.2615175 3.2101595 -0.80841464
7.8528633 -22.610764 -0.77630043
7.8523154 -22.273397 -0.75748122
7.9861145 -20.548681 -0.4151265
8.0772018 -20.472916 -0.41545331
8.2555428 -20.341446 -0.42135376
11.682098 -17.962757 -0.44291955
-4.0188398 -6.4799309 -0.41843939
-3.7346675 -6.5339141 -0.62536943
-3.4526553 -6.4294586 -0.59096873
-3.1339388 -6.4271536 -0.56966448
-2.6402392 -6.6086001 -0.71284401
-2.2291903 -6.4117117 -0.44778332
-1.6668963 -6.4240222 -0.43472129
-1.3284025 -6.6219482 -0.65143621
-0.94773 -6.4308395 -0.42325675
-0.45962399 -6.5470371 -0.55074608
-0.11181825 -6.501225 -0.59472924
1.2615495 -6.4516263 -0.55264169
1.9832168 -6.4324074 -0.4486464
5.5931735 -6.42207 -0.59448016
5.6393385 -6.4341812 -0.59008777
6.7957783 -6.6273103 -0.4542492
6.9563189 -6.6398335 -0.46042356
-4.4637585 -6.0874128 -0.59161818
-4.0546656 -6.1205282 -0.58022833
-3.788379 -6.2057705 -0.67233157
-3.3401506 -6.3959284 -0.59249091
-2.8361897 -6.0738606 -0.76585793
-2.6871033 -6.1309319 -0.76669949
-2.2654099 -6.3959088 -0.44266945
-1.7390561 -6.3753738 -0.43006739
-1.3598084 -6.3744879 -0.4216406
-0.99525255 -6.3742628 -0.41816604
-0.50399947 -6.3560476 -0.40790516
-0.032345105 -6.3126221 -0.4636265
0.24678487 -6.2039113 -0.55572927
0.61587369 -6.1678228 -0.50274521
1.1622366 -6.1435213 -0.52569842
1.2892599 -6.2332277 -0.51631951
1.8614213 -6.1196423 -0.4717257
2.1072493 -6.3335271 -0.44100603
5.825819 -6.3976827 -0.63620007
7.0704622 -6.3477087 -0.45018107
7.3497515 -6.0228572 -0.45513797
-4.4362249 -5.9088755 -0.65162951
-4.0378733 -5.7346096 -0.69027686
-3.8839667 -5.6838651 -0.74351013
-3.5494349 -5.805253 -0.79323703
-2.8389044 -5.9758902 -0.76320529
-2.7842073 -5.9845877 -0.75998867
0.32991824 -5.9979477 -0.59262794
1.1862538 -5.9903555 -0.49963653
1.223834 -5.9834394 -0.57865065
1.6963941 -5.9904275 -0.40318498
7.4832344 -5.8582392 -0.45392925
-4.4992142 -5.3521557 -0.70682907
-3.8965888 -5.5750008 -0.62590009
-0.07434091 -5.4809012 -0.53990686
-4.4346199 -4.9203472 -0.65257442
-4.3882494 -4.9972572 -0.48919535
-4.4663124 -4.5882645 -0.52617335
-4.3170648 -4.6832609 -0.56341738
7.3861961 -4.6062398 -0.61079431
-4.4250045 -4.0149431 -0.47228006
-4.2969713 -4.2314115 -0.58096683
-1.1075747 -4.0593538 -0.78038329
7.3738461 -4.2200851 -0.61920124
-4.4172206 -3.9819953 -0.4844119
-4.2985449 -3.6412783 -0.53670335
0.32397115 -3.896172 -0.5818938
7.3928442 -3.6447368 -0.57000542
-4.4374943 -3.4253612 -0.40808758
-4.3008814 -3.427793 -0.43341899
-2.6652441 -3.4514904 -0.72104168
-2.3329518 -3.4107177 -0.69707727
-1.370752 -3.2350838 -0.72610188
-0.012495261 -3.2316523 -0.40599132
0.22934686 -3.3967061 -0.49562418
0.62273991 -3.2763782 -0.68007839
7.4278541 -3.4044969 -0.48742104
-4.4043627 -2.9141662 -0.52548945
-4.3040428 -2.9720893 -0.63031012
-2.5530171 -2.9643269 -0.71027911
-2.3156791 -2.9557481 -0.67493188
-1.7060618 -3.0149765 -0.53021538
-1.4045904 -3.0674562 -0.60436416
-0.49899143 -2.8470166 -0.42277953
-0.20226684 -2.9094059 -0.41106841
0.25187972 -3.0444813 -0.51142818
0.57954037 -3.1940405 -0.66517556
7.378829 -2.8981442 -0.60573936
-4.4340425 -2.5575752 -0.49338791
-4.2699471 -2.5812392 -0.51427746
-2.4296117 -2.6528058 -0.77878147
-2.1823802 -2.6440868 -0.75194013
-1.775043 -2.6502204 -0.61237079
-1.3969162 -2.5881534 -0.49268866
-0.95440632 -2.7280011 -0.40568265
-0.69664669 -2.765172 -0.59672785
0.17909248 -2.7035358 -0.57455218
7.3947277 -2.529721 -0.58028442
-4.4637971 -2.2229667 -0.4780522
-4.2110038 -2.3531072 -0.69157112
-2.5060413 -2.1894078 -0.70470154
-2.3854928 -2.0795419 -0.63071537
-1.545464 -2.3911505 -0.56237197
7.3733416 -2.0823007 -0.65915424
-4.4382119 -1.7272209 -0.44675681
-4.1733217 -1.7494006 -0.58505154
-3.9285312 -1.6879954 -0.70529425
-2.4972591 -1.9014957 -0.69484341
7.3873854 -1.7758985 -0.62313706
-4.4219155 -1.3566973 -0.40786141
-4.1261778 -1.3318542 -0.60628843
-3.7696691 -1.41432 -0.6504426
-3.5229096 -1.3352571 -0.55727446
7.4259338 -1.4352002 -0.48708051
-4.4388037 -1.1226472 -0.41077328
-4.2074542 -1.0527897 -0.50862396
-3.7143142 -0.9856056 -0.56747222
7.3970623 -1.0263776 -0.57013762
-4.4272342 -0.48760581 -0.40923393
-4.2276182 -0.61455601 -0.43562698
-3.6898856 -0.73595822 -0.5529474
-1.6169186 -0.54241359 -0.40410605
7.4249983 -0.52269214 -0.68277395
-4.4824905 -0.18863082 -0.40558249
-4.3275156 -0.16883782 -0.4626286
-1.6256863 -0.39862785 -0.40228939
5.0568829 -0.23275495 -0.76077574
5.2560854 -0.2852633 -0.72518122
5.9242907 -0.12458245 -0.60055476
6.022089 -0.15360388 -0.61704588
7.3995275 -0.24629915 -0.62957019
-4.4140849 0.16974947 -0.40789616
-4.2942867 0.19554788 -0.41106367
5.4386859 0.23190808 -0.49203965
6.2637377 0.11195089 -0.53296888
6.4851437 0.16948749 -0.54023236
7.4050159 0.2420218 -0.49654999
-4.1247902 0.62902093 -0.49247769
-3.9762082 0.7045722 -0.60987866
-1.6060433 0.58279526 -0.40781876
-1.5908852 0.59395373 -0.4020775
5.0975184 0.67808759 -0.78369415
5.3349648 0.47138923 -0.45583633
6.1213851 0.44024378 -0.40868494
6.6158881 0.76182824 -0.78753555
7.4188194 0.74842751 -0.42628932
-4.1051116 0.98663127 -0.48687142
-3.9746776 0.96441543 -0.62312663
5.1042852 1.0193415 -0.79640806
5.3220272 1.0646045 -0.48810202
7.4172101 0.92289919 -0.41133577
-4.4495287 1.500885 -0.56439227
-4.2272778 1.4040916 -0.52953595
5.0559034 1.2452674 -0.79471326
5.2914767 1.3244339 -0.53416002
7.4324198 1.41978 -0.50977749
-4.4986053 1.8304994 -0.46486992
-4.2941966 1.7733672 -0.61092615
5.3220549 1.7828989 -0.55501652
6.268898 1.8027124 -0.76784587
7.4526887 1.9143699 -0.42269927
-4.4611211 2.2100568 -0.48319831
-4.3069491 2.0370383 -0.63299477
-1.0667969 2.3856218 -0.58804756
0.32181138 2.2731633 -0.41636682
0.60086167 2.259551 -0.42404631
1.1821303 2.3608136 -0.49706069
1.2018019 2.3743327 -0.50810242
5.4031143 2.0207534 -0.59918642
7.4497924 2.2344117 -0.42752057
-4.4713607 2.5458207 -0.50798428
-4.3025074 2.4360323 -0.4157725
-2.147428 2.789325 -0.72564542
-1.6860399 2.7631745 -0.66301441
-1.4077613 2.7588341 -0.6206097
-0.96759796 2.5811405 -0.49359208
-0.56593984 2.5671678 -0.46727443
-0.15245876 2.5958099 -0.50109786
0.099110208 2.4634705 -0.4417465
0.77606368 2.498148 -0.49930936
0.95122159 2.4792595 -0.5004819
1.2773626 2.5086508 -0.41493094
7.4813261 2.5035977 -0.41641429
-4.460475 2.8301167 -0.5387702
-4.241159 3.0317326 -0.69929576
-3.7150326 3.1283193 -0.64845312
-3.3802359 3.0820925 -0.60448843
-2.9196234 3.051446 -0.58071971
-2.5754323 3.01684 -0.53162003
-2.1983004 2.9350801 -0.55910075
-1.8257625 2.9693763 -0.68243778
-1.3951387 2.9229226 -0.64643824
-1.1655588 2.8573174 -0.53147888
-0.40296954 2.9051602 -0.40385592
-0.12506929 3.0076141 -0.40195912
1.462294 2.9972796 -0.66625845
1.8028922 2.8855605 -0.5664978
2.2471435 2.9424391 -0.62402403
2.5014026 3.190953 -0.54316086
5.8822975 3.1044984 -0.57181084
6.0779438 3.1399207 -0.5862186
6.4992576 3.0984828 -0.61082196
6.9543743 3.0967493 -0.58990604
7.4196715 3.115407 -0.56167185
-4.4186745 3.2021241 -0.40521303
-4.1392455 3.2221658 -0.52383655
-3.8027363 3.2270544 -0.48748496
-3.3466463 3.2348909 -0.4109301
-3.01144 3.2081387 -0.74009895
2.6463909 3.3384624 -0.49969468
3.014159 3.4595387 -0.43211347
3.5263214 3.4394436 -0.60952401
3.8586512 3.440001 -0.66167748
4.1430063 3.4050748 -0.6059196
4.6010714 3.433835 -0.48895064
5.0450191 3.4260988 -0.56504238
5.4488983 3.4379406 -0.60646605
5.8226442 3.47697 -0.5891481
6.0515509 3.4242442 -0.70687312
16.943773 -22.265558 -0.20429644
8.2596502 -21.268337 -0.083542503
9.2956381 -21.200308 -0.075263105
8.3245831 -21.064886 -0.070651174
8.7124767 -20.958183 -0.072056204
9.1829653 -21.099754 -0.079944037
9.2823038 -21.104656 -0.07850609
7.9492807 -20.561745 -0.39914569
8.2838497 -20.349277 -0.39404806
-4.0768542 -6.495225 -0.15807736
-3.8128548 -6.6114273 -0.17446095
-3.4087813 -6.4997692 -0.081061542
-3.1171422 -6.4857283 -0.29610115
-2.5921478 -6.5514603 -0.08599665
-2.1016464 -6.5682082 -0.0016569056
-1.7777942 -6.558507 -0.080579184
-1.2164874 -6.4674177 -0.30166405
-0.99570274 -6.5357437 -0.10590345
-0.52789474 -6.4511437 -0.2959972
-0.11116037 -6.5283785 -0.30195409
0.7230891 -6.550086 -0.00183424
1.1185212 -6.5677128 -0.006612502
1.2341665 -6.6148739 -0.0011445465
2.1437125 -6.4787641 -0.011550586
5.5445657 -6.6546087 -0.12250815
5.7827368 -6.5561104 -0.029223099
6.0532818 -6.5079446 -0.029514782
6.7904263 -6.4206572 -0.15859947
6.879087 -6.5479383 -0.25845927
-4.4591341 -6.0619869 -0.20908928
-4.0633821 -6.1100512 -0.13679822
-1.1212218 -6.3949428 -0.0027630823
-0.52058589 -6.3914704 -0.29459605
-0.03025832 -6.201633 -0.39474773
0.15717891 -6.2197342 -0.28952506
0.61099946 -6.1251211 -0.38151699
1.1282253 -6.1833792 -0.28389901
1.2624778 -6.0852938 -0.28018996
1.8576436 -6.0960121 -0.29270768
5.5734248 -6.2547245 -0.11393726
5.6874704 -6.3720598 -0.022461586
6.3106008 -6.3768206 -0.19046517
7.1492858 -6.1692162 -0.32950723
7.4978528 -6.0708218 -0.34287173
-4.460535 -5.9322052 -0.10472889
-4.0754662 -5.9448843 -0.087796673
1.1734958 -5.6633205 -0.001498855
1.3199484 -5.8472571 -0.24206603
1.6610975 -5.9954314 -0.39819661
6.7988 -5.7703295 -0.14877109
6.866621 -5.7689362 -0.14290199
7.2311258 -5.7806573 -0.16566688
-4.4623451 -5.2943716 -0.071558096
1.1682804 -5.5947032 -0.0023223581
1.5134456 -5.5962172 -0.0016145685
7.1889491 -5.219471 -0.1651503
7.5003662 -5.2943125 -0.23329967
-4.4329524 -4.979949 -0.098638758
-4.3540268 -4.8350296 -0.27476126
7.3247042 -5.0835705 -0.083567277
-4.4175696 -4.6983395 -0.13130824
-4.3465643 -4.6723256 -0.23433188
7.1886616 -4.4997716 -0.14234543
7.5837946 -4.5381317 -0.29583186
7.603045 -4.5535202 -0.31197631
-4.4089727 -4.0078936 -0.18444186
-4.3270864 -4.0036316 -0.084231958
7.1944647 -4.1971736 -0.12391973
7.2101622 -4.1862211 -0.12172341
7.6013021 -4.0029707 -0.30592573
-4.4325323 -3.8060656 -0.15638851
-4.3274703 -3.9831016 -0.066754647
7.4715033 -3.8633156 -0.14700788
7.6175308 -3.9841847 -0.28282088
-4.4181552 -3.3900535 -0.24914674
-4.2883039 -3.4170151 -0.20989609
-0.014398769 -3.2116973 -0.39892101
0.0065237661 -3.2093759 -0.39909047
7.5798287 -3.475508 -0.33969089
-4.426343 -2.8719881 -0.15193233
-4.2969437 -3.0747416 -0.1553295
-1.3862917 -2.8312509 -0.39346677
-0.51501775 -2.8308959 -0.38400269
-0.27438757 -2.9073815 -0.37945768
7.4336824 -2.824645 -0.019711554
-4.468801 -2.5959496 -0.098360077
-4.311893 -2.6368244 -0.30120307
-0.9779197 -2.6983905 -0.35680437
-0.74376047 -2.6773014 -0.34963015
7.4554234 -2.6345308 -0.20653063
7.6037178 -2.5035574 -0.29374179
-4.4787273 -2.1881249 -0.022337893
-4.3406634 -2.3572831 -0.13395056
7.4266806 -2.2900441 -0.2386606
-4.441174 -1.7279404 -0.06763266
-4.2793884 -1.8248911 -0.19457759
7.4373298 -1.8807836 -0.19202174
7.6149607 -1.6827502 -0.29328996
-4.4301939 -1.41203 -0.19993518
-4.3037968 -1.4584984 -0.19368783
7.5427618 -1.3383749 -0.19176929
7.6155219 -1.3804828 -0.23541734
-4.4223804 -1.079988 -0.2034765
-4.3209639 -1.0291901 -0.17433006
-2.7316041 -0.90776026 -0.31300506
7.4099979 -0.9732644 -0.27512783
-4.4571033 -0.54269463 -0.24292874
-4.3497238 -0.68314993 -0.1926567
-1.7034338 -0.49292871 -0.25319809
-1.5237525 -0.52211177 -0.30518317
7.4741793 -0.49578643 -0.13819793
-4.459094 -0.16353093 -0.31041473
-4.347765 -0.21339355 -0.13142052
-1.7100636 -0.21204306 -0.25328612
-1.3775351 -0.26538906 -0.2471723
7.4791775 -0.24571159 -0.17576116
-4.4771972 0.15546577 -0.35861558
-4.2024627 0.24690914 -0.19862922
-1.7007266 0.21341366 -0.2217858
-1.4630029 0.241014 -0.26497149
7.4277515 0.16032787 -0.27508804
-4.1613388 0.57412446 -0.066419274
-1.6529462 0.4966417 -0.27025715
-1.5123885 0.5276227 -0.28680128
6.1069107 0.44920802 -0.39692241
7.4753995 0.54082716 -0.14090133
-4.1450434 1.0563154 -0.13840657
7.4276571 0.97912258 -0.28610295
-4.4628611 1.5502579 -0.041980386
-4.2103338 1.3968971 -0.21393484
7.4732285 1.3862478 -0.14058885
7.6203709 1.3505659 -0.24193923
-4.5030646 1.8504952 -0.06256748
-4.3142395 1.748894 -0.22243503
7.4886475 1.8223245 -0.15452622
7.6002822 1.6479264 -0.32306924
-4.5113525 2.1901269 -0.037631944
-4.3622942 2.3375702 -0.16630509
-0.98121274 2.237355 -0.22321805
-0.62404191 2.3486457 -0.22445282
-0.19256283 2.387471 -0.22316059
0.24815778 2.2176275 -0.28932342
0.59416288 2.1757641 -0.29607701
1.0356438 2.2454803 -0.19572908
7.4459648 2.1125116 -0.24923131
7.6200705 2.2582738 -0.28923354
-4.468194 2.5783834 -0.16501984
-4.3067808 2.576829 -0.2972824
-0.91647005 2.5813017 -0.1670299
-0.59439182 2.5412424 -0.17123342
-0.15359753 2.4780631 -0.19197169
0.14781767 2.5433803 -0.051368818
0.63782638 2.4855342 -0.011876479
0.89433044 2.488358 -0.04109437
1.2750113 2.5107269 -0.043427132
7.412015 2.6909618 -0.017913897
7.6453104 2.4899645 -0.26967528
-4.4629431 3.1219919 -0.19704744
-4.3353572 3.1439934 -0.24225789
-3.6971178 3.1882257 -0.13866103
-3.4553761 3.1595767 -0.23059237
-2.9911261 3.1340351 -0.18618566
-2.5526838 3.064898 -0.16743338
-2.1919413 3.090693 -0.13036083
-1.8202531 3.0730867 -0.15824053
-1.4670432 3.061981 -0.10080959
-0.87542433 3.0394123 -0.10947227
-0.47092599 2.9374099 -0.17520732
-0.24644047 2.9664907 -0.30702651
0.11451966 3.0136077 -0.095831126
0.54181528 2.978343 -0.041415811
1.065805 3.0696392 -0.053479131
1.5914075 3.1042104 -0.22863504
1.7582763 3.1108522 -0.16074505
2.2444701 3.070998 -0.15114993
2.4529297 3.1980433 -0.26265904
5.9931421 3.1635017 -0.099429831
6.1041117 3.1668401 -0.056784153
6.6621962 3.1362131 -0.24379316
7.008666 3.1314597 -0.27890337
7.4681797 3.0475783 -0.066517606
7.6477318 3.1873822 -0.27115241
-4.445065 3.2252917 -0.23759454
-4.0944486 3.2755253 -0.12056547
-3.6769793 3.2215033 -0.062487554
-3.4782014 3.296917 -0.046876572
-3.1253428 3.228672 -0.38827914
-2.4625161 3.2147374 -0.23547979
-2.1701827 3.2116265 -0.077907272
-1.8590124 3.2580256 -0.0036963341
-0.17629331 3.2248259 -0.21427253
0.10481714 3.2208996 -0.19770946
1.8751445 3.2180462 -0.02132838
2.1376929 3.2315311 -0.13980818
2.667695 3.3379705 -0.20406595
2.9919386 3.4289842 -0.16220802
3.3614573 3.4525404 -0.16848072
3.8313241 3.4838443 -0.16684884
4.2055016 3.431046 -0.10233845
4.4975042 3.3933716 -0.09448728
4.947875 3.4671612 -0.25697884
5.513844 3.5276499 -0.15704262
5.9012651 3.5081272 -0.10479702
6.0278921 3.4197633 -0.039996289
6.6629825 3.2234819 -0.047467701
7.0438604 3.2231436 -0.24147853
7.5231924 3.2281299 -0.33489585
3.1904316 3.631825 -0.066678979
3.4280519 3.6755486 -0.067162454
3.7607946 3.6420822 -0.080612227
5.8288798 3.6268334 -0.030464444
-4.0945606 -6.5683961 0.07070832
-3.8049588 -6.5480914 0.056172721
-3.2700546 -6.5455456 0.056484323
-3.1879411 -6.606554 0.071936414
-2.0795102 -6.5766659 0.0069487877
-1.7650422 -6.5635958 0.002118241
-1.248644 -6.5949364 0.010794108
-1.0427152 -6.4041591 0.052186444
-0.62571877 -6.426158 0.058062635
-0.18734717 -6.4398594 0.055064846
0.25722936 -6.5041971 0.034161732
0.64103675 -6.4405627 0.048725288
1.0169156 -6.411077 0.059799727
1.2370162 -6.5972681 0.0060470048
6.6263466 -6.5521235 0.059511837
6.968399 -6.5425973 0.054207303
-4.4507599 -6.1109724 0.023880459
-4.1101637 -6.1744585 0.080859199
-1.221562 -6.3708687 0.056885693
-1.1139958 -6.3860106 0.063879579
-0.52155149 -6.3755503 0.05159381
-0.17504394 -6.374073 0.06152242
0.15302396 -6.3828602 0.056730758
0.58298814 -6.3843203 0.057231553
1.0190786 -6.3922615 0.05601
1.2155845 -6.3516684 0.057551805
6.983716 -6.0213156 0.059585281
1.1733807 -5.664362 0.0077274032
1.5161648 -5.6067152 0.0059041805
-4.4796371 -5.2084932 0.0050496855
1.2444649 -5.5840874 0.0054455074
7.3815794 -5.5286112 0.060242712
-4.4725351 -5.1168385 0.01315484
-4.4595656 -4.7321796 0.022977617
-4.37925 -4.7094808 0.070066586
-4.4094067 -4.1518431 0.07041657
-4.3753996 -4.2019157 0.069751784
-4.4142313 -3.8140063 0.077366322
